# .PCD v0.7 - Point Cloud Data file format
VERSION 0.7
FIELDS x y z
SIZE 4 4 4
TYPE F F F
COUNT 1 1 1
WIDTH 1541
HEIGHT 1
VIEWPOINT 0 0 0 1 0 0 0
POINTS 1541
DATA ascii
118.73411 -46.302341 -32.262932
118.51287 -44.791962 -32.590538
116.92521 -45.366909 -32.266651
18.526829 209.54117 -60.56263
146.69614 146.45821 -28.157209
116.52011 -43.536652 -32.644192
202.71759 139.68127 -66.767426
121.12376 -45.070206 -32.833012
-66.711441 164.09268 -35.944729
121.1861 -47.588734 -32.251373
16.753206 211.4086 -60.574242
193.73523 -95.491196 -31.548775
18.639574 211.1712 -60.719624
400.24542 -1.9409193 -64.251686
399.27658 0.057092238 -64.466583
397.84738 -1.3849254 -64.041344
-170.81549 223.93204 -37.494156
396.4024 -0.065007746 -64.075752
190.83138 -94.324585 -31.318182
204.08093 139.72961 -67.176819
-119.79053 188.91287 -44.200497
202.90372 138.09232 -65.799072
-173.74117 224.18472 -36.870781
355.383 20.162621 -50.165894
354.79529 19.971598 -47.863205
205.57983 140.03679 -67.605003
146.22319 194.2662 -70.161674
402.42554 -1.1044201 -64.671288
406.10892 -41.783291 -57.128597
403.42059 -40.321011 -57.311932
203.3595 140.8681 -67.419777
-36.181755 185.61797 -52.524132
353.72797 21.415754 -49.477901
207.44083 138.90466 -67.691742
401.89908 0.48078665 -64.874046
146.04773 188.97566 -69.616119
395.97647 1.9973127 -64.358772
353.26468 21.14115 -47.264996
18.888134 205.61263 -60.216541
19.793428 207.44101 -60.476452
-119.67439 191.18756 -44.45237
196.84106 -98.701004 -31.48086
148.5531 146.73628 -29.696518
20.496065 204.72015 -60.271973
113.44508 -43.592812 -32.264484
111.45544 -42.227535 -32.345425
111.1221 -44.093723 -31.868517
21.723604 205.47885 -60.456478
148.55055 189.15039 -69.789757
-60.913624 164.4669 -33.638058
-62.269733 165.02429 -36.043362
-64.053795 164.03558 -34.195412
109.1683 -42.361858 -32.041325
195.02429 -98.380836 -31.260052
110.16243 -41.508797 -32.359272
-166.5134 221.26709 -38.41629
411.49899 -44.219021 -56.782967
408.77509 -43.12698 -56.93951
195.58119 -97.147881 -31.546017
364.0502 10.611989 -48.748653
363.25748 12.026842 -49.950382
363.04651 11.272976 -47.383224
233.12369 122.75713 -66.768707
232.28163 123.65618 -66.931931
232.13724 122.3767 -66.212303
400.2193 2.4737284 -64.98687
105.42471 -41.233547 -31.855116
107.49001 -40.939106 -32.1721
-59.311913 166.3311 -38.077961
-59.684578 165.47786 -35.890118
-56.796711 166.21933 -36.438164
109.25207 -41.08107 -32.350075
-57.638313 165.05786 -33.544304
25.267014 170.47469 -30.1847
26.642057 170.17714 -29.54578
361.6907 12.989097 -47.749413
360.98163 14.33954 -49.233734
408.8541 -40.965633 -57.395679
108.66053 -40.24678 -32.471909
107.50988 -39.900539 -32.414146
-121.52557 192.40746 -44.358635
299.69617 139.00746 -72.736526
-54.889286 165.74597 -34.081615
-54.569084 166.4458 -35.943462
-31.483667 185.51599 -52.951782
-29.135921 185.51277 -53.174923
-171.65399 227.01022 -37.290497
244.30862 115.66081 -66.838715
243.7653 114.74792 -66.162613
245.47464 114.28869 -66.522964
-34.060738 186.29907 -52.836933
246.81506 114.41519 -66.940453
246.12341 115.75331 -67.253029
26.173334 169.203 -27.109678
28.931999 169.72809 -28.638865
147.36188 190.85533 -69.890732
-174.94986 226.74637 -36.594868
-176.22278 224.3736 -36.345455
150.8168 188.45905 -69.85981
31.706009 169.78476 -29.083488
30.191267 170.41432 -30.512272
24.689634 205.19975 -60.694237
25.86145 203.90379 -60.672565
299.92493 140.39406 -72.894646
-135.06146 195.23224 -42.879135
-135.30505 192.96989 -42.653259
246.95891 111.71498 -65.585907
247.25696 113.18457 -66.513474
245.84578 112.95469 -65.934517
30.348269 169.2711 -27.657234
-131.02267 195.18323 -43.416203
248.58131 110.73452 -65.624977
248.33995 111.88564 -66.226051
249.98466 111.23985 -66.399956
-133.15016 197.25784 -43.312172
-52.418209 166.49619 -35.016258
-51.227409 167.51988 -37.437901
-54.154964 167.31551 -38.181122
249.00806 112.69727 -66.766602
409.72043 -47.578606 -56.04948
405.86206 -4.1299992 -64.56601
403.92514 -5.4919906 -64.078018
155.06398 187.71727 -70.049606
153.47549 189.68918 -70.143089
403.10547 -3.050863 -64.415993
310.49847 53.242615 -47.573418
312.66211 51.811859 -48.272987
311.48706 53.300941 -50.133644
309.58463 54.460194 -49.201153
150.27789 191.04936 -70.083946
23.112637 207.47572 -60.77216
308.7146 54.626102 -47.631363
400.11118 -3.6883626 -63.925369
-167.79095 224.01193 -38.137684
-169.04033 226.20952 -37.855896
-49.082428 167.20978 -35.52681
26.111284 206.68329 -60.961403
312.67688 52.238842 -49.668793
411.84534 -46.304806 -56.348553
299.80298 142.72681 -73.142563
-29.59481 178.71927 -51.487843
-29.023344 180.179 -51.995487
307.8595 55.793968 -49.238289
307.3472 55.60812 -47.433533
306.45523 56.520603 -48.150749
306.18246 57.247841 -49.753681
304.99438 57.637375 -48.133598
406.12012 -1.8769456 -65.00515
199.67421 -40.189911 -31.810144
200.05779 -38.468807 -29.729105
197.66379 -38.555 -31.836071
413.80273 -45.170643 -56.628132
414.58154 -46.953239 -56.257092
-48.447048 166.48956 -33.076393
-46.095318 167.07907 -33.765396
20.839006 208.80801 -60.698627
19.859877 210.19945 -60.740696
-27.025883 179.83794 -52.03788
-25.262411 179.44002 -51.995926
-129.76089 197.95438 -43.821899
37.322002 170.09012 -30.577686
36.606281 169.13483 -28.118326
39.489216 169.72717 -29.995361
198.52051 -37.737247 -30.294443
39.129238 168.79208 -27.650116
-26.299141 181.13188 -52.470119
108.26899 -38.975399 -32.713974
248.4955 114.5379 -67.269104
41.270451 168.32503 -26.898624
41.000713 169.12479 -28.733931
251.05873 112.75492 -67.196976
-43.791531 168.04169 -35.625114
-46.317402 168.0528 -36.784355
304.73425 58.398167 -49.85857
417.18567 -47.433395 -56.185051
416.48941 -45.45483 -56.611897
-173.32613 229.08423 -36.91111
302.96396 140.48767 -73.036125
305.85229 139.20226 -72.974709
242.52271 116.09766 -66.410744
241.44287 117.08888 -66.543839
240.06444 116.61836 -65.632286
242.46858 117.74387 -67.148811
110.71132 -40.384563 -32.681751
148.08452 192.89348 -70.136253
20.826372 210.06375 -60.812859
305.76138 139.66144 -73.140327
329.40018 38.809845 -46.537235
330.14737 39.010063 -48.945141
328.58585 40.035583 -48.573494
237.72252 118.20152 -65.680763
239.27612 118.60867 -66.537857
237.62466 119.73841 -66.549416
327.11264 40.736725 -47.336857
327.20853 41.425121 -49.786354
325.94635 41.94949 -48.481659
20.324709 211.53459 -60.897152
-25.402079 183.2103 -53.062817
21.38802 207.28374 -60.602806
302.90927 141.88672 -73.152489
408.79852 -4.1765313 -64.920235
-23.932337 178.66939 -51.747078
-23.650328 178.12875 -51.441883
43.776691 168.23653 -27.128019
46.102825 169.09633 -29.630739
43.010765 169.00873 -28.803875
-171.16736 229.97476 -37.356182
-39.43943 168.27905 -34.433968
-38.680752 169.00529 -36.338833
-41.147923 168.18924 -34.908848
-124.97535 197.97873 -44.440674
422.36691 -47.483063 -56.199501
423.69525 -46.787659 -56.363979
420.35294 -46.595238 -56.400555
341.98959 30.101912 -47.924843
344.56827 28.607424 -49.243103
342.60178 30.292133 -49.989372
304.3353 140.77409 -73.1464
240.84904 117.99172 -66.765785
346.06055 27.157248 -48.129173
346.54846 27.268257 -49.715946
408.95749 -0.0059036887 -65.710129
410.1463 -2.3810458 -65.428406
216.06357 -52.502174 -30.555164
215.03403 -51.064739 -29.990931
213.85649 -51.953964 -31.831068
22.15844 209.82176 -60.904919
43.815487 169.48541 -30.113335
-168.63214 229.0778 -37.90942
-36.060585 168.9437 -35.069275
-37.898342 168.30563 -33.877331
341.17169 31.217255 -49.588371
114.643 -45.237343 -32.022392
241.51373 118.69496 -67.252769
-23.656914 180.51315 -52.494244
213.31369 -50.417637 -30.794569
340.32166 31.383644 -48.12603
339.88733 32.127262 -49.493576
234.07231 120.47871 -65.766144
234.2518 121.65906 -66.476616
232.93916 120.95586 -65.608864
48.182201 167.6747 -26.718681
49.237675 168.75623 -29.410358
45.661808 167.9213 -26.767866
-166.28766 227.10706 -38.434704
425.37988 -47.637676 -56.128365
425.48831 -47.411423 -56.209282
-33.976807 168.78098 -33.777122
-33.863476 169.59958 -36.23896
338.35733 32.597866 -47.433975
338.71835 33.269493 -50.37912
-23.259039 179.37025 -52.098194
235.5081 119.64164 -65.694717
211.16263 -48.918468 -31.111296
211.23575 -47.862347 -29.977875
209.83006 -48.361488 -31.645824
211.26561 -50.314411 -32.342064
212.3278 -49.207901 -30.413383
-31.574474 169.34956 -34.645817
140.96825 196.48422 -70.063362
142.57776 195.05322 -70.020004
-169.06409 232.56468 -37.758781
236.29695 120.99433 -66.724342
-22.33349 178.4978 -51.67424
-166.96663 231.17827 -38.23378
214.07057 -49.61129 -29.332726
425.38794 -46.798183 -56.315739
424.8786 -45.688938 -56.675957
425.38721 -45.758549 -56.644699
238.00409 121.20762 -67.256485
403.96948 -0.22913991 -65.019341
50.545708 168.09282 -28.107967
51.59034 168.73715 -29.848045
-29.595078 169.81488 -35.37994
-31.183645 170.27802 -37.358566
139.79924 197.71036 -70.113091
331.84528 38.08728 -49.931931
331.45828 37.606659 -47.483944
333.43256 36.65361 -49.010933
24.675137 209.23763 -61.070435
-24.055552 181.85603 -52.863232
209.73875 -47.049171 -30.412704
-131.03233 200.40062 -43.861576
114.01236 -41.423641 -32.832748
233.85725 123.46809 -67.199699
236.166 122.84658 -67.399414
10.839611 212.17949 -60.120056
9.2053108 210.29015 -59.802322
12.471534 209.47806 -60.016018
52.827084 167.92883 -28.225389
53.537292 168.70094 -30.199203
117.17521 -41.490997 -33.191399
335.23111 35.783424 -50.366364
334.9339 35.358959 -48.333275
333.61151 37.338337 -51.559467
143.4751 197.08551 -70.270538
403.66006 1.2453258 -65.231041
-173.23126 232.20889 -36.884521
210.69945 -46.1749 -28.662222
208.6505 -45.863312 -30.103428
336.70746 34.343239 -49.175465
335.78448 34.232033 -46.684227
144.56366 195.2883 -70.162735
119.17822 -43.560627 -32.954288
7.7043815 212.8557 -59.904137
239.0687 119.93681 -67.074028
203.49567 -42.35442 -30.818617
205.23805 -44.274689 -31.308643
205.8744 -42.892525 -29.356285
-27.388546 170.03264 -35.338181
-25.46785 169.41194 -32.906055
-23.830748 170.59383 -35.968582
204.79968 -41.41048 -28.723267
306.38721 139.20056 -73.097595
306.88721 138.70056 -73.103607
414.57065 -42.884766 -57.151196
14.14467 211.37378 -60.339458
240.49509 119.30856 -67.199677
411.13748 -42.329475 -57.177902
-130.33488 201.82455 -44.069828
320.75012 45.492752 -47.500027
321.69797 45.452812 -49.599083
319.94946 46.599991 -49.111084
118.1053 -42.676636 -33.031116
398.81784 4.9555211 -65.203278
209.11415 -44.725342 -28.502159
207.26878 -44.445724 -29.791565
-20.685257 177.636 -51.069294
-20.500729 178.59827 -51.797405
-19.520227 178.19269 -51.565651
12.362623 214.33926 -60.442097
-18.0261 177.69392 -51.150978
121.23312 -43.112541 -33.298004
122.95119 203.936 -69.612389
316.20129 49.045013 -47.972668
317.52386 48.436192 -49.19051
316.28915 49.69696 -50.224907
-18.844643 178.94241 -52.066559
202.00061 -40.33009 -29.997007
201.14981 -41.757462 -32.157463
119.47771 -42.041439 -33.337334
-165.9718 233.28036 -38.404839
203.54779 -41.01112 -29.387106
-12.312754 171.43417 -35.429157
-11.691614 172.23318 -37.804428
-14.914444 171.55394 -36.454254
126.17989 203.31404 -69.784424
125.627 204.18161 -69.830223
314.53745 50.577393 -48.857624
243.54031 116.6689 -67.061203
124.26634 204.68207 -69.781471
244.61253 116.57398 -67.282623
-10.292722 171.77599 -36.044804
-10.809915 171.00873 -33.784935
397.94052 7.2848082 -65.450455
321.70007 124.6816 -72.149788
321.38721 125.20056 -72.30294
320.38095 124.69804 -72.05191
320.38824 125.20008 -72.138916
318.39444 47.226093 -47.425438
247.88283 -79.596992 -30.388033
247.21243 -80.386398 -31.790302
248.41971 -80.573051 -30.91835
57.836765 168.42575 -30.656429
57.68861 167.50525 -28.464151
59.913605 168.15202 -30.603182
-170.78517 236.27016 -37.320663
-8.301302 171.61586 -35.140041
60.599159 167.19577 -28.554802
15.128589 213.30246 -60.595047
318.79749 47.655773 -49.733337
-15.990735 177.05742 -50.56953
-15.245644 178.01711 -51.563198
243.92641 117.36354 -67.398445
-16.894148 178.67693 -52.009056
123.95629 206.02756 -69.886292
-15.221985 179.20317 -52.479767
315.77988 126.44839 -72.063499
313.14124 126.67641 -71.98455
246.21169 -79.048912 -31.265566
247.53885 -78.480423 -29.500566
125.9119 205.88892 -70.010742
-174.17033 235.06934 -36.640152
418.42807 -43.659695 -57.059998
-13.6676 178.69699 -52.240608
61.487049 166.20547 -26.573603
63.026566 166.91226 -28.584381
401.58102 4.1936207 -65.443901
-173.56287 237.2114 -36.726395
-4.8042355 171.66418 -34.618439
-2.848799 171.92555 -35.129257
-5.4666586 172.10841 -36.152184
62.805973 167.94597 -30.987478
238.49048 -72.434021 -31.255117
239.72018 -71.862839 -29.653383
237.96033 -71.215004 -30.548887
-12.713601 177.81557 -51.45026
63.734158 166.16304 -27.109838
64.469124 166.67195 -28.440166
322.32162 44.45261 -47.903656
323.43292 43.967976 -48.987408
66.033066 166.35011 -28.194742
65.108459 167.20174 -29.894712
324.65375 42.772892 -48.056561
325.12479 43.0494 -50.050873
129.29285 205.09534 -70.164429
-166.75874 236.00533 -38.173702
317.84286 127.21294 -72.222
316.88892 128.19955 -72.314827
396.13068 9.2803249 -65.514709
130.83606 204.5519 -70.213135
-14.174314 177.16589 -50.720165
-167.939 238.43959 -37.865238
-12.362637 178.57028 -52.21204
74.005791 164.99658 -27.683086
73.981697 165.91788 -29.721056
72.075485 165.59288 -28.362209
257.776 104.64207 -65.928459
257.64426 105.60178 -66.363312
256.15079 105.47173 -65.652748
127.86627 205.73407 -70.130104
-12.578113 179.40756 -52.793526
256.75537 106.40948 -66.410248
255.62434 106.79392 -66.205673
314.89685 130.7012 -72.415146
316.88626 129.19954 -72.440529
-11.662325 178.26802 -51.959499
126.37374 207.87122 -70.223808
127.60382 206.8754 -70.216858
315.38986 130.69983 -72.489006
-1.1459079 172.12653 -35.478718
-0.8910504 171.79401 -34.459869
-0.33354467 172.1624 -35.498184
-130.83694 203.37083 -44.118435
318.89148 126.6798 -72.313904
318.38721 127.20056 -72.288116
-169.68953 239.38794 -37.477943
318.88721 127.20056 -72.352844
-11.193874 178.7908 -52.392391
422.65671 -43.618458 -57.149193
-10.38715 177.99796 -51.609451
318.38721 127.70056 -72.383949
318.88721 127.70056 -72.505508
135.43114 -53.850414 -32.487484
132.78622 -53.027645 -32.364319
132.9017 -54.917145 -31.933325
319.38721 127.20056 -72.447754
1.2137247 172.1088 -35.223988
313.48236 51.619469 -49.641697
243.4368 -75.683517 -30.215668
241.50491 -75.155602 -31.366358
242.02008 -76.588783 -32.295921
12.239509 216.20705 -60.588623
68.136452 166.12543 -28.315258
68.927475 165.56664 -27.299427
69.977806 166.00058 -28.619423
11.554352 217.8949 -60.663017
264.02145 100.89178 -66.026169
263.108 102.04317 -66.286674
262.19431 101.49228 -65.759201
264.4444 102.78776 -66.79879
-8.5944185 177.16814 -50.506035
-7.8524871 178.21452 -51.825783
-172.04364 239.25496 -36.996731
3.2889454 171.57651 -33.468166
4.5843797 172.56334 -36.352409
294.90182 66.088394 -49.934334
294.1745 65.757599 -47.283062
296.5647 64.266434 -48.386604
137.90778 -52.495125 -33.095451
138.52936 -55.15855 -32.551632
-21.091496 179.85179 -52.387592
-131.75499 208.53284 -44.332756
124.40815 207.58234 -70.059242
382.88187 9.2841244 -63.705311
379.04935 12.246839 -63.613548
14.717893 216.17908 -60.797287
5.8121357 171.85446 -34.094791
77.231209 164.6922 -28.076736
77.697365 165.17551 -29.277994
76.747314 165.13884 -28.851185
240.2934 -73.59478 -30.84029
242.41714 -74.263283 -29.670351
75.858261 165.02411 -28.322783
76.243805 165.59544 -29.723902
75.012741 165.39841 -28.864372
12.901228 219.5168 -60.900677
-170.29536 241.81046 -37.295849
-171.93234 243.68021 -36.920925
-173.1703 241.55777 -36.718979
7.9921327 171.533 -33.023125
7.8511639 172.45447 -35.784752
10.641336 172.15363 -34.711617
15.374931 219.0117 -61.073605
258.87723 104.30752 -66.132156
258.42123 103.60374 -65.513657
259.81503 103.38932 -65.886711
259.914 104.99854 -66.640701
381.29297 14.478621 -64.380196
283.10043 75.092796 -49.006378
283.21561 74.511642 -47.591484
284.22235 74.190498 -48.979904
78.939819 164.56616 -28.429537
79.410751 165.41026 -30.487053
424.87744 -44.793846 -56.872726
261.83325 103.08234 -66.337418
10.829173 173.28619 -38.205265
13.504115 172.58183 -35.879379
-142.90985 221.47084 -43.056332
-144.43256 220.13704 -42.763077
-141.75745 220.16333 -43.230507
17.599258 213.29523 -60.809959
80.716934 164.41792 -28.769356
-141.19693 222.72864 -43.363747
-18.733175 180.11513 -52.677563
258.54028 105.00568 -66.383804
15.1922 172.08736 -34.309242
16.496628 172.69116 -36.140415
287.21353 71.5429 -48.188644
289.08127 69.974648 -47.9137
289.55527 70.216568 -49.727001
131.76816 203.18916 -70.143257
-17.105429 179.64487 -52.582123
255.80388 -85.295349 -28.997465
253.6649 -85.208618 -30.848917
255.67967 -86.795349 -30.703058
17.515459 215.2083 -60.961784
17.692896 217.04877 -61.122585
425.38721 -44.799438 -56.89566
425.4873 -44.223503 -57.05051
258.56009 105.54875 -66.604088
150.83603 -63.390804 -32.156693
151.24878 -61.609894 -32.611259
148.31317 -63.228302 -31.878918
425.88013 -43.79604 -57.195839
17.666964 171.89438 -33.733398
19.160236 172.59248 -35.818665
284.88565 73.23629 -47.746426
285.8139 73.237038 -49.894909
-142.65497 225.84633 -43.124031
-139.18199 225.24127 -43.731255
153.20055 -64.588501 -32.180866
84.364105 163.97874 -29.185837
85.90081 164.06084 -29.9685
84.584183 164.77631 -31.060339
379.31985 16.67811 -64.501022
-140.38184 227.65582 -43.535931
155.67725 -62.014656 -33.064884
-167.48178 241.10825 -37.891708
382.83661 16.932116 -64.970474
292.01761 67.451828 -47.302181
292.72534 67.76561 -49.855618
290.74667 68.907852 -48.636841
-165.05591 239.36472 -38.443672
385.42374 13.965705 -64.842743
257.02335 -86.513718 -29.200073
257.40524 -87.536285 -29.97324
17.624916 220.19933 -61.356327
-13.871943 179.32089 -52.674179
20.912416 172.39056 -35.22179
21.410427 172.99913 -37.115883
293.4646 66.764336 -48.60828
86.201675 163.33916 -28.542877
87.660889 163.69022 -29.896456
260.81512 102.228 -65.602913
22.750748 172.34978 -35.204491
260.91849 -91.99527 -31.798014
261.01764 -90.476128 -30.045305
259.81699 -90.7108 -31.309704
142.97852 -60.310665 -31.893084
143.81409 -58.61887 -32.387066
139.55035 -58.563187 -31.87933
144.9471 -60.903831 -31.99807
144.66949 -59.990501 -32.175339
25.466354 172.20642 -34.984634
24.088428 172.93248 -37.04047
87.7715 163.02728 -28.524506
88.868759 163.07455 -29.092983
-139.5643 220.88715 -43.615875
259.78586 -90.068459 -30.645441
425.88721 -46.299438 -56.478142
-167.94601 243.56371 -37.729759
-136.93893 219.94591 -44.023613
-166.52956 242.80145 -38.041241
136.90906 153.98833 -36.375401
137.52379 154.58994 -38.315456
135.71046 154.98865 -37.900024
262.63452 104.75287 -67.053047
264.50623 104.40089 -67.26284
262.67151 -91.574295 -29.913181
262.9581 -92.716103 -31.022512
-6.243494 177.5508 -51.03038
-5.2565784 178.49852 -52.204338
94.604294 160.46889 -26.41753
95.935997 161.31538 -28.575256
93.453613 161.5686 -28.031607
135.50308 -56.621655 -31.84479
264.39084 -92.557236 -29.673826
263.98587 -93.199677 -30.781374
139.11789 153.70927 -37.422714
-4.4462762 177.70312 -51.283741
300.77649 61.371185 -49.536377
299.22281 62.025898 -47.887527
300.74289 60.777119 -47.689579
-169.93863 244.00948 -37.313313
260.9903 107.38844 -67.448723
264.21979 105.93369 -67.562721
265.04175 -93.844261 -30.724237
96.929054 160.80721 -27.963823
97.938919 160.85001 -28.479918
140.89851 152.43466 -35.6866
141.58678 152.55556 -36.524963
140.34703 152.8873 -36.375004
409.3356 24.861622 -69.334404
409.91986 23.335182 -69.25074
411.81747 24.199932 -69.632202
141.70532 151.92751 -35.166119
142.20776 -55.993919 -32.798481
-137.9505 222.63895 -43.911934
19.988688 214.42612 -61.110077
-3.9340801 178.11389 -51.864826
-3.1387162 177.8548 -51.503998
410.37936 26.179649 -69.659378
407.66049 26.603312 -69.287407
100.18599 160.06348 -27.863817
99.522774 160.47795 -28.374664
99.553925 160.19977 -27.838484
145.18695 150.95662 -35.600754
144.68141 151.67609 -36.886044
143.50578 151.46022 -35.451488
144.04037 150.82668 -34.448772
146.65645 151.10173 -37.170044
302.81671 59.440289 -48.505325
303.99097 59.289455 -50.816956
163.40273 -37.406075 -39.207527
163.45982 -39.691544 -38.775555
166.2141 -39.70512 -39.053474
100.02151 160.36984 -28.356403
142.94328 152.21317 -36.791538
-1.1621085 177.82565 -51.350376
-2.9736769 178.5197 -52.296921
100.35727 160.5228 -28.843563
-1.0510317 178.84566 -52.692364
267.54932 97.982605 -65.823517
268.02026 96.960999 -65.47773
269.11465 97.593948 -66.106171
-165.72253 244.18871 -38.166397
258.70493 -88.071747 -29.391552
257.99811 -88.645927 -30.640549
259.68326 -89.189026 -29.757183
-135.1739 222.21307 -44.363804
268.21289 98.82827 -66.321503
-135.45033 224.85089 -44.354347
103.00988 159.80942 -28.731388
102.63228 160.56541 -30.096207
101.5813 160.0976 -28.601223
167.66057 -37.40926 -39.588478
271.11716 96.708176 -66.296722
270.51282 99.062752 -66.832733
104.41101 159.00777 -27.902277
103.96551 160.01256 -29.632206
-170.78786 245.45042 -37.106682
-168.80075 245.45151 -37.50536
-166.95108 245.4247 -37.880276
140.65869 -53.462589 -33.198307
170.39958 -40.275322 -39.366631
168.65837 -40.799534 -39.100685
170.68304 -41.516594 -39.161774
269.38864 96.15062 -65.550552
270.961 95.118858 -65.616875
274.96207 -98.562363 -29.944244
273.5831 -97.775345 -29.722569
273.79944 -99.110306 -31.341431
272.34882 95.364792 -66.143433
297.46701 62.800972 -46.152397
298.00363 63.045483 -48.094654
1.5028664 177.98192 -51.606091
1.8541149 178.74699 -52.714672
0.36951417 178.50772 -52.353065
3.5543969 178.45308 -52.29126
2.9739819 179.1432 -53.173038
268.11838 -96.254601 -31.385715
268.16287 -95.073105 -29.878891
266.2666 -95.289749 -31.52911
101.18064 160.82771 -29.911261
274.08365 94.93663 -66.366325
274.92841 96.681854 -66.980492
273.00476 96.240173 -66.57077
3.361026 177.50388 -50.764431
269.43958 -96.225601 -30.433458
90.168991 162.6987 -28.887955
89.846237 163.5493 -30.577496
92.094406 162.6792 -29.712219
4.8750267 177.92746 -51.505348
88.877495 162.34831 -27.641396
5.586885 178.58932 -52.468624
168.7823 -39.372276 -39.367188
266.58615 -94.28791 -30.071728
91.143753 161.76817 -27.466461
144.19542 -53.469017 -33.615196
382.56818 20.226719 -65.411842
94.219978 162.22974 -29.695896
272.64304 97.564285 -66.841583
6.6535449 177.82072 -51.230865
7.4001074 178.68939 -52.616768
149.10196 148.72961 -33.7868
150.86249 148.89304 -35.496414
149.1362 149.44633 -35.341579
-169.6806 246.92029 -37.29026
152.66162 147.83418 -34.602715
153.1519 148.49707 -36.478764
346.9906 85.671692 -69.377205
344.62387 84.958778 -69.178543
346.94208 83.79805 -69.203369
344.84863 85.950165 -69.282524
385.92038 18.451857 -65.544411
113.08237 157.21095 -28.587029
111.81762 157.79465 -29.044157
111.09284 157.35387 -27.932951
271.92838 -97.849052 -30.859314
-167.56728 247.22157 -37.705627
8.8826771 178.12015 -51.708969
146.57219 -56.759544 -33.146431
-164.76872 246.6042 -38.287998
8.3834591 177.25592 -50.02277
107.40223 158.05415 -27.509829
107.99065 158.78389 -29.093428
107.10278 158.78697 -28.677589
109.29867 158.10855 -28.458712
345.08841 86.943459 -69.388458
147.04428 150.24834 -35.479874
106.90555 159.32889 -29.652996
106.17075 158.90198 -28.484474
-137.22258 227.75185 -44.078663
275.57562 -99.440071 -30.77194
275.26147 -100.04882 -31.729626
157.34094 151.13412 -48.06498
157.24609 151.74455 -50.067116
156.02621 151.68542 -48.273937
10.43276 177.55237 -50.647602
182.08972 -49.221634 -38.844131
181.616 -46.272751 -39.277336
179.24481 -47.772724 -38.822056
11.232239 178.50481 -52.39072
342.79599 86.241165 -69.196152
342.68451 88.029556 -69.358932
340.53021 87.242569 -69.166695
146.00041 -62.896965 -31.66707
146.05849 -61.876808 -31.910385
277.17596 -100.53434 -31.344198
339.6026 88.804794 -69.266899
154.93004 152.36377 -49.241844
153.52559 152.26715 -47.224751
155.02133 151.89589 -47.747105
12.371446 177.73775 -51.101406
13.905201 178.39407 -52.477848
146.94203 -60.203053 -32.404148
110.74212 158.39015 -29.681425
27.86331 172.61345 -36.357712
26.152395 172.91858 -37.131969
-142.40948 228.05659 -43.17318
277.05927 91.251709 -65.779243
277.77188 92.676842 -66.440857
275.20633 92.939171 -65.878906
27.744036 173.27959 -38.371967
185.07405 -47.783005 -39.333378
185.87715 -50.503452 -38.980587
186.87468 -49.063354 -39.300476
276.48361 94.567009 -66.690948
-144.98877 229.05255 -42.68689
-141.47224 229.65952 -43.334415
30.306957 172.30626 -35.726055
29.578617 173.03268 -37.773113
42.832855 185.70825 -59.880211
41.146179 184.15094 -59.310776
43.119385 183.5435 -59.320435
40.463055 185.24429 -59.532555
278.77551 93.998116 -66.933884
159.68568 150.5563 -49.121437
-169.58894 249.22556 -37.247952
-165.66605 249.60683 -38.017036
278.57486 -101.29774 -31.676361
279.20596 -100.95768 -30.921999
280.38644 92.156769 -66.76976
278.89453 91.189484 -66.249603
280.7645 89.963867 -66.277122
278.67264 -99.828255 -29.623476
282.40393 90.657761 -66.753777
387.00095 15.740346 -65.296814
163.23454 149.28673 -49.381405
161.87183 149.51523 -48.373344
163.46796 148.79478 -48.031788
388.54883 13.709511 -65.196663
313.8981 131.68954 -72.533562
39.631905 186.52403 -59.730087
314.99011 131.20056 -72.644699
391.59366 12.881768 -65.455063
16.086872 177.99301 -51.999161
15.487985 178.55426 -52.970818
44.803028 184.02676 -59.654549
14.345836 177.49324 -50.733337
337.86673 90.718643 -69.362183
336.42969 89.027672 -69.120705
340.54745 90.215599 -69.454582
114.06351 156.90352 -28.481174
114.40401 157.15182 -29.10327
341.79935 89.34996 -69.437378
46.488991 185.06137 -60.111389
314.50229 131.69954 -72.634285
17.225275 177.71638 -51.59277
17.76399 178.0648 -52.308224
45.328297 186.77541 -60.375904
45.032005 182.6102 -59.179825
46.514812 183.33833 -59.612221
149.92607 -58.770817 -33.093014
167.29108 147.19487 -47.870567
167.34378 147.8949 -50.311131
165.332 148.1167 -48.272541
342.36853 90.348289 -69.56559
282.81659 89.386307 -66.530449
391.66196 11.417673 -65.256622
115.88567 156.93127 -29.461864
117.04803 155.97313 -28.328381
117.61108 156.74594 -30.019787
18.081831 177.64229 -51.486851
345.28308 88.275581 -69.524414
19.112738 177.91469 -52.097168
19.132082 178.64322 -53.292397
47.518059 181.7187 -59.051174
48.709198 183.39476 -59.893345
253.53867 -83.637833 -29.340336
251.70096 -83.559853 -30.937832
36.824799 171.69095 -34.823692
36.45565 172.6118 -37.470531
34.74218 171.9657 -35.310486
-167.77383 251.76781 -37.537094
-170.18115 251.31226 -37.074299
49.532501 182.06448 -59.532326
169.47922 146.73589 -49.386314
50.497169 182.6808 -59.913795
51.084053 183.87537 -60.34024
118.8539 154.96611 -27.453489
120.2146 155.42325 -28.956909
118.64198 155.94185 -29.075794
121.03458 154.07491 -26.990095
121.91386 154.97209 -29.033777
168.97581 146.14911 -46.755653
170.43561 145.25438 -45.86272
171.50401 145.52357 -48.154564
39.027695 172.18307 -36.593636
39.147121 171.29018 -34.070999
41.862103 171.80711 -35.999836
38.834755 172.87633 -38.640903
49.290802 185.21288 -60.459785
173.05943 -42.534767 -39.169552
172.16904 -40.531403 -39.460686
252.41846 -82.519325 -29.211088
250.98421 -81.993202 -30.011356
47.891579 187.16306 -60.710167
20.334209 177.80873 -51.928303
19.977558 178.14209 -52.568195
172.85901 -45.254444 -38.640171
176.48737 -43.868412 -39.216469
122.59827 154.02263 -27.652607
122.27099 154.38956 -28.145157
343.88455 89.399391 -69.555565
-169.73587 253.18565 -37.113457
176.38016 -46.680542 -38.7286
178.68262 -45.760918 -39.111984
21.293821 178.31314 -52.864948
23.970854 178.14282 -52.743759
22.711742 178.84755 -53.835644
283.18793 92.232117 -67.128151
-166.73872 254.74911 -37.65889
21.900183 177.45818 -51.140686
174.85753 143.92538 -47.468582
175.38705 144.0789 -48.685341
174.53801 144.43999 -48.698441
176.76804 143.51433 -48.816105
344.46863 90.936226 -69.737709
175.55351 -40.716621 -39.630356
-164.76709 252.50325 -38.107353
178.5257 142.44919 -47.828804
178.39572 142.93372 -49.258823
254.51445 -84.494431 -29.341135
123.49158 154.42313 -28.889763
281.09048 94.396866 -67.270409
-139.11372 229.37915 -43.756371
-169.54324 255.11395 -37.106571
250.52747 -80.879128 -29.27965
249.52917 -81.269699 -30.616026
179.15009 -41.94696 -39.632626
51.075481 181.68311 -59.580864
249.33699 -80.048126 -29.51956
-139.47023 231.38663 -43.678318
52.07037 182.53281 -60.04425
46.858707 171.25249 -35.354637
48.862488 171.56059 -36.673996
47.043114 171.97156 -37.432884
278.28421 96.198837 -67.2845
233.6559 -66.781372 -29.936113
232.69962 -66.761345 -30.7229
233.35013 -67.693642 -31.08028
48.638653 170.76329 -34.40794
-168.55386 256.96939 -37.267208
182.34044 141.01173 -48.833759
184.45328 140.33804 -49.914665
181.44984 141.78191 -50.085522
-166.45671 257.11111 -37.651524
180.71037 141.51253 -48.001072
53.875473 182.41718 -60.198761
52.972088 181.29176 -59.608971
171.09392 -40.772705 -39.342323
232.22502 -65.488518 -29.825045
179.65131 142.33667 -49.152851
51.083652 171.08142 -35.86219
179.05656 -21.587328 -29.75169
179.52055 -22.718603 -30.567949
180.54605 -21.789312 -28.707787
377.76413 24.33951 -65.4758
-167.4314 258.03976 -37.454514
-136.84346 230.44157 -44.14093
-168.58044 259.16824 -37.234989
53.930012 171.1402 -36.758167
52.324295 171.53127 -37.457275
-166.14391 258.92026 -37.662216
57.954178 180.5697 -59.821991
57.087543 181.42906 -60.169857
56.113003 180.98595 -59.840363
54.653362 180.4285 -59.319515
54.715996 181.44789 -59.896339
170.9231 -38.662792 -39.659058
183.7047 -24.516342 -28.950153
183.03198 -22.463953 -27.318422
181.5321 -23.669542 -29.889374
129.70267 -52.360447 -32.149879
129.78496 -49.572495 -32.811852
127.32623 -50.414764 -32.322178
228.55148 -61.925133 -29.416786
226.69005 -61.248383 -30.277641
228.0107 -62.659386 -30.605124
55.977028 182.26878 -60.349758
406.50232 28.653627 -69.323044
409.15396 27.748518 -69.640045
-142.25735 232.40353 -43.158939
54.976032 170.43723 -35.030449
55.445606 170.85802 -36.32497
-168.61279 259.70056 -37.126862
-168.11279 259.70056 -37.260715
409.38458 29.208857 -69.816338
-167.61279 260.20056 -37.320374
-166.1403 260.66516 -37.670834
173.37144 -39.26049 -39.742718
407.10614 30.393976 -69.546623
173.18835 -37.673752 -39.93602
-167.73621 260.81543 -37.115211
-166.6891 260.65469 -37.534782
-34.037167 187.99678 -53.097519
-139.6142 233.51878 -43.623894
127.06383 -48.343464 -32.774948
181.43869 -20.880154 -26.970188
58.317253 182.04504 -60.515179
276.44287 98.140022 -67.449165
408.39923 30.694754 -69.741364
273.74542 99.172867 -67.323761
162.27528 -8.545435 -29.055172
161.03043 -7.5202236 -28.849985
160.8895 -8.9246578 -30.518944
406.87384 31.189688 -69.559914
408.8927 30.699675 -69.925056
-35.130363 189.83932 -53.240486
409.39072 30.197315 -70.039757
188.85103 137.95187 -48.82634
190.62151 137.25058 -49.330654
189.56967 138.03563 -50.266052
57.120102 184.03601 -60.961834
406.87943 31.969788 -69.611732
404.61465 30.655546 -69.232529
124.10807 -49.613262 -32.123402
124.61603 -46.588669 -32.891781
192.22606 136.20088 -48.452782
191.66696 136.903 -49.873676
62.97839 169.99965 -36.283508
64.951553 170.2128 -37.600868
63.211021 170.56277 -37.938419
190.27786 136.72729 -47.097599
159.18127 -6.5263548 -29.114164
161.06407 -5.7959576 -26.910316
159.47841 -5.6568675 -27.914936
63.882019 169.149 -34.353474
-31.896572 187.48447 -53.231224
197.00064 133.71907 -48.249302
198.57236 133.34784 -49.642059
197.52814 134.07669 -50.306637
179.66133 -44.291451 -39.402447
52.903496 183.43294 -60.421406
66.012405 169.4369 -35.812916
401.03925 33.282566 -69.015175
403.81808 32.508205 -69.307602
403.20096 34.627056 -69.408646
284.24847 94.511009 -67.558449
-137.29622 232.90419 -44.037281
52.84938 184.73836 -60.736679
51.200001 185.34778 -60.706913
67.501877 169.13629 -35.532799
67.470421 169.75987 -37.25787
229.16557 -62.919495 -29.901648
230.29686 -63.886642 -29.882053
230.17244 -62.470253 -28.545988
-137.96332 235.27753 -43.881313
169.94891 -13.484097 -28.514544
167.4933 -12.80538 -29.739237
168.76302 -13.86033 -29.887882
223.87886 -59.906105 -31.259502
225.55847 -58.970333 -28.923973
223.76825 -58.525269 -30.011942
278.63367 98.335373 -67.681671
50.298939 186.59134 -60.862541
124.34579 -43.39817 -33.594784
406.32462 33.713268 -69.832672
-140.90771 235.60896 -43.349293
-143.88475 234.93356 -42.816269
70.778496 168.04352 -33.879253
72.669853 168.6913 -36.298409
69.703362 169.13055 -36.38031
166.79379 -11.333185 -28.663662
168.65602 -11.199292 -27.05723
223.74812 -57.253891 -28.738108
221.80931 -57.93137 -31.043455
52.402565 186.44864 -61.035248
342.7045 37.837845 -62.749367
343.41397 38.64291 -63.501099
342.00623 39.328541 -63.227055
127.38241 -45.216396 -33.534409
127.12644 -46.798248 -33.141144
344.0506 37.883274 -63.38623
221.78438 -56.334854 -29.501991
281.81305 97.273109 -67.758057
74.081039 167.58232 -33.871449
54.598888 183.74802 -60.653919
345.0676 36.110386 -62.717411
345.29153 37.286926 -63.478958
344.06766 37.146812 -62.984238
347.27118 36.324394 -63.534157
28.328386 177.50484 -51.85865
27.484535 177.73296 -52.381939
26.441807 177.75568 -52.260693
199.20737 132.6689 -48.489693
200.13197 132.61748 -49.903831
182.33641 -43.687103 -39.618591
165.50771 -10.61799 -28.875811
166.75021 -10.376103 -27.639309
77.075172 167.77451 -35.505772
75.056374 168.41823 -36.464813
218.62405 -53.453293 -29.300434
216.67261 -53.78854 -31.284245
218.01328 -54.565659 -30.93059
407.23941 31.70085 -69.642975
266.09811 99.258408 -65.885094
265.85941 101.04639 -66.531166
407.88675 31.199947 -69.726654
78.146568 166.50417 -32.633007
79.809715 167.1239 -34.886154
77.87233 167.14651 -34.147552
344.97638 38.56356 -63.913548
129.48183 -47.006523 -33.369537
267.87695 100.3384 -66.699043
63.237801 177.72263 -58.505398
64.322815 178.32114 -59.358002
62.138618 178.83899 -59.311821
200.41107 132.03358 -48.462143
201.53632 131.62712 -49.08696
82.910416 166.96765 -35.802677
81.172905 167.65643 -36.881794
219.52657 -55.839375 -30.897509
-164.0065 254.5079 -38.192272
194.39856 134.82333 -47.52206
194.08661 135.55687 -49.393307
31.380928 176.84528 -50.376465
34.648571 177.42436 -52.40633
32.502377 177.66786 -52.642464
-164.88226 255.31769 -37.997063
87.555283 165.46983 -34.085224
89.541718 165.65479 -35.555893
87.223335 166.34276 -36.212051
341.97995 41.096378 -63.934566
339.99426 40.254059 -62.822945
65.911652 178.55266 -59.861465
65.445702 177.99268 -59.346886
66.42334 177.68365 -59.241085
67.471825 178.03198 -59.804073
67.316391 178.78305 -60.277054
195.31853 134.7876 -48.912384
36.432175 177.95285 -53.857849
35.068726 178.09001 -53.945057
83.205742 166.22351 -33.974419
81.721352 166.48882 -34.019875
37.198059 177.38068 -52.691868
266.92767 102.03403 -67.011909
-164.97813 256.30029 -37.947231
38.008801 177.90912 -53.948521
184.18135 -45.539261 -39.556942
269.73874 101.88334 -67.349892
-138.33458 238.31755 -43.739555
38.468685 176.77725 -51.299198
39.224327 177.49571 -53.192944
40.850662 177.02118 -52.30677
85.149849 166.1042 -34.574722
85.232979 166.84172 -36.559978
132.86601 -50.887947 -32.871441
338.43466 42.846687 -63.586365
339.61203 41.660839 -63.414875
340.44943 42.690212 -64.108315
406.88721 32.700562 -69.773834
131.34485 -53.841656 -31.999769
67.846634 177.31854 -59.192921
68.92495 177.68633 -59.796867
407.47501 32.876801 -69.921783
177.9613 -40.234745 -39.771435
68.346466 178.3913 -60.213627
-141.24763 237.88196 -43.234634
-142.82291 236.88824 -42.972183
228.05014 -61.075775 -28.96393
344.14545 40.629723 -64.361031
343.56915 39.658871 -63.919933
174.0218 -18.230928 -30.325489
174.8768 -16.958498 -28.244686
173.29893 -16.633574 -29.199781
406.88721 33.700562 -69.950027
342.25421 42.605137 -64.495461
42.698494 176.46523 -51.177975
42.984215 177.31291 -53.365429
171.6349 -15.443897 -29.275887
169.56042 -14.849707 -30.324507
236.3432 -69.923691 -30.691771
236.16426 -68.318481 -29.275951
234.6712 -68.719879 -30.958214
234.57039 -67.709534 -30.072248
344.25839 41.987206 -64.69709
45.145565 176.87025 -52.833202
237.23465 -69.299011 -29.314787
56.584877 169.93091 -34.100636
58.738613 170.35767 -35.917187
56.646179 170.63506 -36.046822
207.65392 128.5126 -49.801155
207.30579 128.32268 -48.536072
208.51276 127.40575 -47.799725
209.28139 127.7275 -50.224037
271.80322 100.51414 -67.349281
69.979713 177.03154 -59.351097
69.648643 177.31308 -59.613571
69.082886 177.08876 -59.240795
237.72122 -68.839607 -28.404242
-164.92044 257.71933 -37.912571
401.52795 36.561951 -69.360008
400.48938 34.938465 -69.09491
70.539375 177.59695 -59.915981
46.874176 176.47299 -52.25412
46.363304 176.82314 -53.082157
69.432709 178.33794 -60.316452
399.60101 39.06955 -69.351524
399.67871 37.570477 -69.230614
401.52899 38.298248 -69.52578
273.28009 101.96841 -67.759438
204.23621 129.98975 -48.509827
206.10542 129.11679 -48.987064
204.75983 130.28149 -50.391331
70.756531 178.89584 -60.783192
72.28196 177.96983 -60.418331
345.12964 39.714413 -64.312424
72.242706 177.07838 -59.641674
70.903549 176.75978 -59.089531
-136.12105 236.6353 -44.172199
52.174046 175.72176 -51.582539
53.022484 176.16246 -53.18317
50.933365 176.29573 -52.915413
176.59351 -18.411917 -28.386641
346.5405 37.752678 -63.967018
176.37206 -16.917389 -26.958117
54.290833 175.66093 -52.042458
-165.52361 260.66898 -37.681755
-163.97041 259.09216 -38.024715
73.456726 177.39909 -60.120502
266.78931 104.17537 -67.472542
-134.8392 238.43553 -44.345867
92.133255 164.37617 -33.546223
93.502335 164.77631 -35.265141
91.390114 165.05571 -34.916904
217.67172 122.87176 -49.992382
218.17709 122.15922 -48.631569
218.78709 122.36589 -50.453102
401.62405 39.700901 -69.661758
400.50607 41.217018 -69.626167
201.76086 -58.969418 -38.982529
199.38918 -59.037655 -38.810379
200.9381 -60.151009 -38.799076
178.16867 -20.760839 -29.609159
179.25035 -20.883652 -28.830347
397.13852 39.839489 -69.123016
-163.18652 260.73752 -38.052578
95.780899 164.713 -36.305233
94.332626 165.40562 -37.390713
178.53157 -19.979145 -28.459057
177.34705 -19.768099 -29.226591
55.18998 175.04947 -50.299446
56.675415 175.40897 -51.973694
-142.89636 238.56621 -42.910862
401.85443 40.711834 -69.741325
134.57167 -52.279854 -32.751797
-141.11652 240.00273 -43.189503
397.23178 41.905979 -69.291969
-138.5723 241.8125 -43.587143
210.81903 126.38531 -48.687374
210.84827 127.15323 -51.253483
191.14842 -55.257778 -38.661705
193.46211 -53.703381 -39.027027
191.47871 -53.228012 -38.988132
194.49406 -56.127415 -38.813126
-166.11279 261.20056 -37.458248
57.973583 174.93855 -50.887955
58.995678 175.23807 -52.209526
56.782539 174.87784 -50.253593
-135.62506 240.93764 -44.135925
59.343403 174.69986 -50.555149
399.38712 42.20224 -69.505791
135.94075 -52.450024 -32.874516
401.38721 41.200562 -69.808647
101.04101 162.84488 -34.472431
100.15675 163.7047 -36.137562
98.673775 163.34161 -34.377502
-164.82071 261.43488 -37.651665
271.09286 105.16876 -68.065819
-141.3577 242.82486 -43.04454
400.19141 42.20063 -69.647552
203.12199 131.05757 -50.012398
202.67935 130.76208 -48.286472
63.28138 174.56668 -51.616501
62.663555 175.15707 -53.271889
61.263744 174.79407 -51.587029
-162.61914 262.19885 -38.031197
98.194321 164.43486 -36.938404
96.963013 164.02879 -35.163551
60.000313 179.71132 -59.583969
59.913437 181.01649 -60.293297
103.55937 162.23633 -34.42458
102.26635 163.42285 -36.673672
-138.82379 244.82997 -43.433453
64.873955 174.25604 -51.179379
65.095932 174.7961 -53.022285
-164.11784 262.20071 -37.621567
135.91187 -51.178032 -33.164097
403.88733 36.704521 -69.596024
186.70474 138.83914 -48.408085
187.83748 138.96223 -50.632774
196.82201 -54.786461 -39.071339
276.74573 100.32107 -67.81163
68.880463 173.76276 -51.155968
69.38533 174.33087 -53.212189
66.966019 174.16386 -51.697769
106.67973 161.4342 -34.282692
105.18881 162.97514 -37.286297
330.38696 46.136555 -62.343502
331.46136 46.944748 -63.296402
329.10229 48.049801 -62.918633
70.547394 173.68706 -51.640289
107.3989 162.34036 -36.960522
194.03737 -32.008087 -28.06908
193.57028 -30.837166 -27.210121
192.10211 -30.793535 -28.449532
405.38785 34.699112 -69.669533
405.38788 35.70076 -69.798637
60.150955 178.65483 -58.827286
61.906883 180.30673 -60.187916
-135.97479 244.0442 -43.968658
72.625137 173.24516 -51.101501
71.892944 173.99445 -53.238224
61.371323 181.69168 -60.748371
73.543114 173.71097 -53.115372
200.14264 -56.483105 -39.078362
197.12431 -57.372272 -38.838562
327.6532 49.776218 -63.394157
326.61438 49.026337 -62.476337
329.28961 49.761566 -63.879936
188.02844 137.85115 -47.231705
109.94695 161.77892 -37.068443
74.828934 173.31865 -52.428253
404.38663 36.700718 -69.717987
325.67743 50.812969 -63.237709
59.953789 181.97348 -60.690727
403.39169 37.690922 -69.710022
131.8978 229.52705 -72.031036
132.39072 228.44916 -72.008774
133.97675 228.82513 -72.108261
327.80695 51.365383 -64.151566
244.94606 105.27854 -49.803185
244.91351 104.81377 -48.283688
246.34212 104.03734 -49.038845
403.88721 37.200562 -69.697723
276.1044 102.97031 -68.135002
196.60632 -35.012905 -29.064182
197.91637 -33.826004 -26.61927
195.51375 -33.492645 -28.381824
112.56751 160.48718 -35.383369
115.09497 160.60739 -37.278835
112.73657 161.32266 -37.60181
114.82647 159.83855 -35.156544
132.36356 -48.375679 -33.39254
7.3452163 182.00131 -55.277088
9.0668201 183.41452 -55.992985
7.0026369 183.92024 -55.939816
9.5339394 182.09946 -55.542583
243.86919 105.56308 -48.336185
243.4001 106.19171 -49.281105
280.00687 99.742912 -67.979149
75.389389 172.94946 -51.442009
76.65126 173.12166 -52.61068
76.536674 172.72066 -51.187126
201.5873 -55.185112 -39.093479
200.13162 -54.342793 -39.103996
134.20078 225.74672 -71.968201
136.08655 225.39008 -72.048759
135.25862 227.10246 -72.090965
199.10516 -35.849487 -27.767727
197.27219 -36.757057 -30.341904
199.0616 -37.204514 -29.265844
78.258644 172.77585 -52.215904
76.374069 173.71599 -54.313324
198.83604 -54.714325 -39.141777
330.31137 50.904297 -64.545685
1.8529767 183.32393 -55.313358
4.8382425 183.33826 -55.552174
3.1858923 184.98328 -55.889561
5.4627638 185.67619 -56.261208
247.71677 102.72012 -48.078434
249.27983 101.61998 -48.218819
249.54398 102.00955 -50.039005
247.90042 103.18069 -49.913124
0.622962 185.8712 -55.876919
3.1092079 186.85068 -56.315033
64.085037 179.49181 -60.074551
63.953117 181.28188 -60.893715
246.47484 103.54212 -47.812546
-137.02487 245.56367 -43.730263
-139.73912 247.62418 -43.151077
-141.29259 245.31158 -42.961548
81.496933 172.13873 -51.740517
79.463318 172.2554 -51.044167
66.280403 179.82867 -60.619972
282.35574 99.556343 -68.098038
-137.58307 246.75664 -43.580902
322.11664 52.15892 -62.554005
321.67633 53.343903 -63.222244
320.32111 53.694054 -62.714813
234.13893 112.23888 -48.530918
233.7439 113.03532 -50.257763
232.05472 113.51053 -48.281277
232.3253 113.84831 -49.8997
403.39288 39.208046 -69.849884
219.44925 121.0471 -47.455025
220.01779 121.31304 -49.341629
137.42838 225.18845 -72.106766
137.62733 226.48334 -72.178436
138.70938 224.99167 -72.156242
4.6250324 187.75046 -56.631977
119.18925 159.00531 -35.959843
118.16878 160.12952 -38.140953
116.80114 159.58653 -35.801628
220.94182 120.30332 -47.872055
202.90392 -61.12973 -38.799217
206.58551 -61.44519 -38.950821
204.32024 -59.29501 -39.031307
117.7063 158.64471 -34.087223
119.67093 158.12373 -34.146595
321.79462 54.461655 -63.857811
221.44594 120.45422 -49.278362
85.86911 171.54692 -52.242168
85.84407 172.21269 -54.332767
84.591393 172.00739 -53.02491
207.01292 -64.187325 -38.707077
204.69392 -62.967258 -38.696983
402.87933 39.706284 -69.87989
88.72612 171.60397 -54.080959
133.48521 230.21272 -72.146492
253.12228 109.18708 -66.422249
253.29985 107.80163 -65.789047
254.61777 107.85465 -66.334808
-135.59378 246.72021 -43.93306
222.37492 120.10529 -49.962936
222.57886 119.51288 -48.464203
87.772476 170.84645 -51.001789
90.420578 170.62589 -51.95063
224.06316 118.6813 -48.684601
223.61565 119.3462 -49.959858
249.94376 109.8061 -65.568481
315.20807 57.517788 -62.73996
313.35541 59.515202 -63.16629
312.94424 58.032169 -61.773533
8.2856369 185.31769 -56.460911
251.43433 109.97757 -66.259186
196.17873 -32.400158 -26.605209
251.6821 111.0197 -66.78965
316.06897 59.002274 -63.990425
135.12778 230.29381 -72.229698
136.97145 228.85474 -72.253281
252.439 110.26754 -66.701805
402.38721 40.700562 -69.905632
-133.04079 245.8304 -44.407383
402.88721 40.200562 -69.99324
402.88724 40.732948 -70.085007
403.38721 40.265343 -70.144699
402.38721 41.200562 -70.02533
224.99335 117.9207 -48.103695
225.42329 118.22438 -49.944851
316.63254 57.620205 -63.538673
317.52722 56.313721 -63.142193
317.82629 57.704235 -64.023735
76.239609 176.17752 -59.161716
76.607697 177.37419 -60.533958
74.938965 177.32811 -60.21455
77.765961 176.81573 -60.263954
10.94469 184.64284 -56.573658
209.1273 -63.147633 -38.919979
73.858215 176.65709 -59.378029
209.67213 -64.816391 -38.796394
185.38438 -25.640238 -28.714739
186.15977 -27.422747 -29.942986
187.36394 -26.055347 -27.453175
230.07082 114.79024 -48.268707
229.57864 115.47001 -49.42601
228.3009 115.88863 -48.20895
227.32812 117.00549 -49.828026
226.383 117.10081 -48.249184
7.1666737 187.73537 -56.87154
131.92397 232.05992 -72.134468
130.65195 230.75845 -72.012344
132.39662 230.82532 -72.113983
209.36757 -61.581989 -38.96941
188.62596 -27.892275 -28.337223
188.78918 -26.805279 -27.026674
208.33939 -60.113224 -39.018486
318.61288 54.821945 -62.670925
319.68353 55.342373 -63.501534
95.041069 169.35741 -50.635014
97.256065 169.39134 -52.300941
94.549698 169.94887 -52.396645
189.38411 -29.392845 -29.297121
190.85007 -29.045719 -27.651257
190.46434 -30.211191 -29.245323
123.68909 156.9574 -34.187538
123.81722 157.69989 -35.992634
121.76655 158.1331 -35.62064
212.16371 -66.342674 -38.721325
208.72917 -66.254364 -38.548553
-136.60002 249.1519 -43.650383
228.67336 116.19975 -49.951012
253.60776 110.96006 -67.159409
10.074837 186.63803 -56.978165
256.26416 107.62222 -66.721245
-139.27783 251.06593 -43.081913
77.954323 175.5088 -58.63472
78.857208 176.09998 -59.673401
128.31087 156.00235 -35.086395
126.12846 157.20888 -36.47715
126.19234 155.80646 -33.314426
319.11737 56.680058 -63.975319
134.01375 231.48628 -72.222382
255.09103 109.12846 -66.927544
79.136322 177.10843 -60.809223
231.05714 114.66792 -49.913994
79.670029 174.90746 -58.065487
323.8981 52.224495 -63.423267
322.62488 53.157257 -63.493839
10.814888 181.38974 -55.28223
11.285636 182.69257 -55.947151
215.61572 -67.060951 -38.707008
216.66411 -69.322815 -38.585476
218.20264 -68.148659 -38.591454
323.80478 53.697792 -64.143509
80.141403 176.49789 -60.480385
80.913742 175.91379 -59.929169
13.346996 182.29584 -56.000992
12.305725 181.57875 -55.515945
13.816773 181.18204 -55.42313
258.20514 106.64034 -66.830399
214.10138 -68.548141 -38.573391
12.983579 183.62196 -56.479874
214.24939 -65.837547 -38.789333
105.41749 167.47487 -51.581078
106.62961 167.70654 -53.287666
104.30846 168.28296 -53.465096
325.59167 52.568562 -64.098511
215.23637 -65.813042 -38.75642
83.638092 174.26102 -58.183506
84.833023 175.23582 -59.946621
82.249199 175.07155 -59.05003
85.60199 174.04845 -58.550758
157.32109 -4.5113173 -28.197298
155.1523 -3.9719856 -29.146065
156.09055 -4.9914231 -29.638943
257.43646 108.99557 -67.316521
157.34352 -5.8512144 -29.703411
238.55922 109.17999 -48.233257
238.621 109.69226 -49.968353
237.26727 110.40411 -49.313961
-133.17941 249.13501 -44.250015
14.77775 181.85071 -55.935383
158.49783 -5.4748621 -28.428286
240.32669 107.92279 -48.085506
240.01488 108.69468 -49.833599
15.537059 181.02287 -55.506199
86.539391 174.57603 -59.699928
255.64661 110.23833 -67.34494
14.900831 183.03683 -56.45816
216.3703 -65.758362 -38.618782
391.41928 48.138786 -69.228104
389.17682 50.236607 -69.169411
387.90201 47.986771 -68.86998
87.384132 173.93201 -59.03611
-134.75954 250.62668 -43.912525
16.268517 181.85916 -56.090382
121.29552 157.32559 -33.415031
137.16756 231.99065 -72.391701
16.621208 181.07547 -55.670479
133.94112 233.4417 -72.288651
391.76648 50.413101 -69.423347
88.71273 173.21878 -58.234631
88.792137 173.95703 -59.57568
87.953964 174.58481 -60.153141
17.603573 181.23056 -55.85165
235.72145 111.27789 -48.789818
236.36183 111.3191 -50.281765
235.10179 112.04712 -49.91832
16.857107 182.9574 -56.62426
390.7547 51.477184 -69.401131
17.533119 182.02039 -56.306629
393.01572 51.489006 -69.603226
394.01367 49.050243 -69.577934
82.778358 176.01526 -60.416611
-133.26903 252.03114 -44.110695
136.07045 234.04703 -72.419525
107.77097 166.92656 -51.531345
