# .PCD v0.7 - Point Cloud Data file format
VERSION 0.7
FIELDS x y z
SIZE 4 4 4
TYPE F F F
COUNT 1 1 1
WIDTH 1367
HEIGHT 1
VIEWPOINT 0 0 0 1 0 0 0
POINTS 1367
DATA ascii
-0.24644716 -0.3018021 0.48516375
-0.23860982 -0.29722238 0.4830268
-0.23184679 -0.2943978 0.48164943
-0.23066799 -0.2904233 0.4855487
-0.031013388 0.14425041 0.56981999
-0.22514001 -0.292858 0.47852799
-0.22707613 -0.29739851 0.47657335
-0.21968171 -0.29960462 0.47217166
-0.21980152 -0.29421756 0.47369495
-0.22388005 -0.30596024 0.47330171
-0.2217429 -0.31239793 0.47318617
-0.27339262 -0.3867223 0.43323809
-0.070265397 0.014746356 0.53425598
-0.21123594 -0.29520172 0.46514934
-0.21479999 -0.29464531 0.46952069
-0.21530864 -0.30913159 0.47009978
-0.26757687 -0.38712758 0.43146753
-0.054417942 0.022598399 0.53528446
-0.061021939 0.015596279 0.53325331
-0.21227787 -0.33184966 0.46917647
-0.2147733 -0.33938587 0.47099784
-0.26664954 -0.38913614 0.42768434
-0.31522581 -0.46529594 0.39727625
-0.31326687 -0.4578701 0.39636999
0.048346899 0.33824846 0.54919839
-0.070570394 0.0024111685 0.52616578
-0.063178346 0.003665963 0.52604461
-0.067949392 0.0084125688 0.53098118
-0.075272918 0.0052240212 0.52839512
-0.20641154 -0.29959556 0.45821989
-0.20821874 -0.29221705 0.4606812
-0.21009235 -0.30772969 0.46493095
-0.20465651 -0.33077642 0.46138507
-0.20898648 -0.32178035 0.46564919
-0.21479416 -0.34706828 0.46786055
-0.26234579 -0.38905224 0.42643699
-0.26110843 -0.38751101 0.43212855
-0.25605521 -0.388414 0.4320668
-0.26526752 -0.39134255 0.42404991
-0.019641275 0.078615189 0.54895693
-0.041968934 0.037279312 0.53992236
-0.062653042 0.0076090316 0.53007102
-0.2039794 -0.29187393 0.45419666
-0.26302913 -0.39558458 0.42114627
-0.26141 -0.39124498 0.421624
-0.26464105 -0.40611681 0.42238313
-0.26550969 -0.41434506 0.42231324
-0.068414986 -0.0057689287 0.51721406
-0.25848237 -0.39474341 0.41702619
-0.26751897 -0.41983166 0.42173037
-0.30837035 -0.47666702 0.39072666
0.056833901 0.33965319 0.54299611
-0.072513185 -0.013530672 0.50718117
-0.19856486 -0.29408672 0.4467684
-0.25521177 -0.39327902 0.41583622
-0.30262262 -0.47568879 0.38468957
0.063526429 0.34201926 0.53659469
0.049135599 0.34833157 0.54724115
0.055876534 0.32405907 0.54489458
-0.25957578 -0.42153418 0.41349402
-0.26265714 -0.42674956 0.41197532
0.050028339 0.27333054 0.55122489
-0.24910305 -0.39427114 0.41078278
-0.29514 -0.45714375 0.38757125
-0.066532426 -0.017908959 0.49685863
-0.24368146 -0.39488235 0.40649319
0.073843688 0.33102164 0.52957332
0.065314472 0.32867762 0.53712714
0.065862954 0.26489964 0.53930157
-0.051494841 -0.016384095 0.49587205
-0.23670433 -0.39629608 0.39959958
-0.28433466 -0.46126151 0.37855583
-0.28777042 -0.4596191 0.38284248
-0.021856332 0.020108063 0.52334774
-0.025665062 0.013220042 0.51877296
-0.021193769 0.0071031968 0.50691342
-0.23683508 -0.39926594 0.39178896
0.081672162 0.31246385 0.52545202
-0.084067002 -0.027470781 0.44539821
-0.087584697 -0.029047117 0.45238119
-0.089161597 -0.030225087 0.44636431
-0.07623145 -0.023916058 0.44770649
-0.087029777 -0.031015942 0.44275329
-0.081459112 -0.028443666 0.44118321
0.086759366 0.33256367 0.51732606
0.088016607 0.32249424 0.51844287
-0.075273618 -0.02529363 0.44173175
-0.068798952 -0.024224121 0.44167292
0.077144496 0.24365638 0.52891088
-0.014937757 0.0016613391 0.49391958
-0.10531691 -0.094696701 0.42550939
-0.10378215 -0.085610874 0.42348897
-0.10894454 -0.092994705 0.42916775
0.090107061 0.34389359 0.51060867
-0.10131855 -0.074746214 0.42263523
-0.10691623 -0.080416791 0.42781398
-0.098467655 -0.10114198 0.41962537
-0.16885628 -0.27855629 0.40074643
-0.1740737 -0.28233704 0.40099126
-0.1745487 -0.27533248 0.40651879
0.082538597 0.23011027 0.52286988
0.088433757 0.2387429 0.51855868
0.078916378 0.21948077 0.52269316
-0.07799568 -0.051062405 0.42781791
-0.086466625 -0.051429689 0.42922267
-0.089236699 -0.055555295 0.42430601
-0.096859083 -0.086574122 0.41837278
-0.15951261 -0.27027458 0.40385878
-0.17705479 -0.28506097 0.40256026
0.086432502 0.22041887 0.51680237
-0.081314936 -0.053208712 0.42340234
-0.079359718 -0.055792704 0.41909358
-0.17134121 -0.2938759 0.3903859
-0.17430188 -0.29635432 0.39169177
0.10662002 0.31620076 0.50217581
0.096409507 0.30928111 0.51298058
-0.073672891 -0.052608404 0.42269772
-0.083877824 -0.060677052 0.41894913
-0.15569597 -0.28077936 0.39424166
-0.16639368 -0.29021543 0.39020187
0.0074944375 0.003911586 0.48047602
-0.16959345 -0.30399573 0.38131782
-0.17225824 -0.30865788 0.38132286
0.10662574 0.327021 0.49966073
0.008068583 -0.0019487605 0.47774681
0.0040163207 -0.0066024633 0.47823787
0.0027109939 -0.011817223 0.47753176
-0.09028098 -0.10146259 0.41262844
-0.085834756 -0.098813064 0.41006419
-0.14124763 -0.27656308 0.39274529
-0.14535853 -0.27103531 0.39905414
-0.16601583 -0.30318323 0.37898093
-0.15973526 -0.29708439 0.38101935
-0.17532037 -0.31379846 0.38320416
0.01292825 0.0022647709 0.47550902
0.010299272 -0.012900748 0.47322753
-0.082108475 -0.10699515 0.40644738
-0.08091408 -0.097380847 0.40835506
-0.086066939 -0.11204846 0.40931961
-0.089359552 -0.11747491 0.41167954
-0.16612044 -0.31431931 0.36956224
0.11833708 0.31943318 0.48990625
0.015159923 -0.0016735985 0.47241431
-0.074593753 -0.10301052 0.40324673
0.11865389 0.30757457 0.49175444
0.11189371 0.29995385 0.49912056
0.017078094 -0.0086410586 0.46948305
-0.013618232 -0.028359048 0.44993073
-0.020490307 -0.031792581 0.4418501
-0.02088698 -0.029441997 0.44985503
-0.13517901 -0.27831596 0.38750201
-0.13012642 -0.27106893 0.38913065
-0.13849425 -0.28646091 0.38128385
-0.19349782 -0.40306184 0.35957634
-0.19655032 -0.4033536 0.36289707
0.023014301 -0.0021122987 0.46519199
0.023355853 0.0043896469 0.46697351
-0.010730998 -0.030408366 0.43889564
-0.021210071 -0.034067716 0.43713221
-0.064824596 -0.080145083 0.40495932
-0.060872521 -0.071922854 0.40618563
-0.060666401 -0.07784012 0.40261647
-0.070118651 -0.075740851 0.40915051
-0.16850099 -0.32143655 0.36735746
-0.16042756 -0.31143925 0.36793619
-0.16022442 -0.32317525 0.35847932
-0.16648039 -0.33249396 0.35606766
0.020834547 -0.013763046 0.4645505
0.019290328 -0.018100102 0.46248323
-0.020187106 -0.039656434 0.43399745
-0.051673211 -0.075814039 0.40021676
-0.12519331 -0.2711823 0.38184339
-0.12199388 -0.26164013 0.381475
-0.19627047 -0.40623567 0.35199887
-0.19198407 -0.40517503 0.34883091
-0.20385385 -0.40775579 0.35033536
0.12577736 0.30997109 0.48414448
0.058768068 0.075009905 0.47688898
-0.0069820886 -0.032467984 0.43267491
-0.011688217 -0.038171966 0.4314118
-0.054784741 -0.080334365 0.39810088
-0.0568805 -0.087269723 0.39825079
0.13026367 0.29871294 0.48084861
0.030646399 0.014265636 0.46584705
0.032666564 0.0083479546 0.46038252
0.02860862 -0.0080623729 0.45902225
-0.0049252892 -0.037288688 0.42799601
-0.044832204 -0.077627756 0.39533305
-0.18965688 -0.40567291 0.33833823
-0.18455271 -0.40018499 0.3426623
0.12669681 0.29309735 0.48488617
0.033734404 0.0032314493 0.45734087
0.029462798 -0.013948174 0.45567662
-0.050379414 -0.087829277 0.3921583
-0.15803844 -0.33280367 0.3479999
-0.24978802 -0.45796779 0.28572819
0.12669572 0.24803102 0.48158875
0.042790905 0.010134327 0.44941723
0.029851332 -0.016950494 0.45248583
-0.047293123 -0.084053032 0.39083284
-0.15066954 -0.33277857 0.34263387
-0.19738194 -0.41337439 0.32594067
-0.24357653 -0.45482889 0.2812506
0.03880218 -0.0063334992 0.44945669
0.036856443 -0.013691089 0.44895035
-0.045190193 -0.092525356 0.38633445
-0.059186354 -0.11857105 0.38750058
-0.1652758 -0.34246472 0.34356248
-0.15957586 -0.34396705 0.33638707
-0.18282396 -0.40057376 0.3268683
-0.19236632 -0.41260374 0.31644693
-0.24587165 -0.46449438 0.276088
0.1358753 0.28278893 0.47527725
0.040136263 -0.017080091 0.44306916
0.03248997 -0.018267885 0.4476001
-0.047535669 -0.10483513 0.38628119
-0.047210146 -0.11056966 0.3823182
-0.052643016 -0.11377374 0.38419825
-0.056366235 -0.11083425 0.38974753
-0.23615463 -0.44429767 0.28630671
0.14315143 0.28878245 0.46726689
0.13996625 0.26353166 0.46910489
0.048299883 0.0048301267 0.44065601
0.041824929 -0.014247057 0.44355687
0.0058285254 -0.038577735 0.41555578
0.0028915105 -0.043303609 0.4157719
0.0093593504 -0.035584804 0.41621354
-0.040848438 -0.10566689 0.37968168
0.14584956 0.27591366 0.46397221
0.046834476 -0.010076907 0.43852857
0.036118887 -0.022758342 0.43805155
0.027619734 -0.025044914 0.43631881
0.013555315 -0.035081226 0.4147481
0.00036812699 -0.05116884 0.41567329
0.0026043707 -0.063753523 0.40664285
-0.003271268 -0.061359629 0.41413209
-0.039194085 -0.098557293 0.37939262
-0.040015731 -0.090134047 0.38215321
-0.23252068 -0.4568944 0.27249593
0.048329521 -0.01540187 0.43419066
0.045421503 -0.018560074 0.43634042
0.0082620811 -0.055481039 0.40240404
0.00013777125 -0.068588011 0.40534577
-0.0042901989 -0.067597277 0.40883753
-0.0078359749 -0.07096456 0.40470245
-0.22136357 -0.44993398 0.27327245
-0.22586501 -0.45729509 0.26626489
0.053985227 0.0014498858 0.43213812
0.04505372 -0.024178818 0.4308629
0.018730978 -0.035534192 0.41269279
0.013445579 -0.04384727 0.4031983
0.010435845 -0.046935931 0.40388492
0.0042677512 -0.074008554 0.39720219
-0.029597115 -0.093320563 0.37364033
-0.034276135 -0.098737329 0.37454253
-0.2176296 -0.45089933 0.26730308
0.017805561 -0.042695757 0.40121081
-0.018384149 -0.084392294 0.37655455
-0.023656035 -0.087660342 0.37495962
-0.024346825 -0.09380912 0.36936805
0.023600357 -0.043678679 0.39625767
0.0090711834 -0.075104974 0.39280921
-0.027397241 -0.10105161 0.36676115
0.017530367 -0.050751809 0.39257357
0.011156797 -0.068751283 0.39370152
0.030205235 -0.044728771 0.39155746
0.022677567 -0.049489304 0.38686427
0.016674219 -0.060897835 0.38870439
0.015548926 -0.073895849 0.38481608
-0.019247638 -0.10124578 0.35590959
0.02648651 -0.047824662 0.38613385
0.020471524 -0.058495447 0.38392508
0.023896795 -0.059909407 0.37597838
0.028252276 -0.052652467 0.3753688
0.088151641 0.023508666 0.3910023
-0.16359152 0.073222682 0.60686916
-0.14066061 0.065495647 0.59488201
-0.15405969 0.048334464 0.58645678
-0.16172004 0.045230031 0.58480799
-0.12724523 0.071294956 0.59684271
-0.14788851 0.056308758 0.59043127
-0.14083022 0.053446289 0.58701605
-0.15462236 0.060020063 0.59557968
-0.14832045 0.044885579 0.58251613
-0.11659192 0.083137229 0.6017583
-0.12030618 0.076894656 0.59943348
-0.1162174 0.076126322 0.59775394
-0.13005157 0.055842664 0.58688611
-0.13957953 0.039592214 0.57805765
-0.146395 0.032903802 0.57454979
-0.11689368 0.067526527 0.59236985
-0.12072655 0.059665948 0.58779943
-0.14291862 0.024694845 0.56729221
-0.13947849 0.026798593 0.56834012
-0.1109307 0.066111743 0.58825004
-0.11393367 0.057916045 0.58345836
-0.12548187 0.046103451 0.57817358
-0.13216348 0.032474596 0.56964815
-0.38985804 -0.42241263 0.44714332
-0.35156575 -0.3852748 0.47757646
-0.10392265 0.061171293 0.57946765
-0.3485083 -0.39207193 0.47400978
-0.4136169 -0.49433979 0.4404383
-0.42110896 -0.49455914 0.44133389
-0.33968788 -0.38843393 0.47108316
-0.092388995 0.066079594 0.57478261
-0.099323735 0.053985387 0.57063663
-0.11037768 0.045530513 0.56981581
-0.11713969 0.025120258 0.55728054
-0.34425372 -0.39871529 0.468739
-0.10334113 0.042568434 0.56414127
-0.11150888 0.034021772 0.56113589
-0.33722073 -0.39612582 0.46687445
-0.10484649 0.030493051 0.55764258
-0.095542341 0.048565526 0.56486017
-0.32721865 -0.39389724 0.46302009
-0.32867295 -0.40055954 0.46077952
-0.076424092 0.060506351 0.56481427
-0.3170087 -0.40149695 0.45539635
-0.30739942 -0.39699683 0.45190978
-0.17427869 -0.30818737 0.60153598
-0.17897736 -0.31359118 0.60080844
-0.30679709 -0.40240821 0.45054868
-0.30253714 -0.40534389 0.44740593
-0.29702297 -0.4022873 0.44566572
-0.28931037 -0.40130475 0.44166687
-0.29533556 -0.41075456 0.44186386
-0.36289364 -0.49739364 0.41944775
-0.35690963 -0.51889229 0.40620905
-0.29613128 -0.41819456 0.43706512
-0.2843399 -0.40827212 0.43784499
-0.28301993 -0.41354671 0.43527034
-0.28609958 -0.41778135 0.43388805
-0.28716135 -0.42289773 0.43023694
-0.27080917 -0.40918308 0.42838976
-0.04619721 0.018298097 0.53090191
-0.05671566 0.011616349 0.53013366
-0.050434764 0.0075099794 0.52513719
-0.27425438 -0.41323572 0.4299019
-0.27547801 -0.41886854 0.42786846
-0.33367279 -0.53018463 0.39228556
-0.034432679 0.015197374 0.52517772
-0.040774867 -0.015915738 0.49378538
-0.040334515 -0.019580897 0.4899306
-0.029040968 -0.013833744 0.49107328
-0.028976705 -0.019074591 0.4870967
-0.017760823 -0.017438181 0.48399299
0.018502919 -0.068621151 0.073224768
-0.013115679 -0.16180144 0.09495987
-0.0079995664 -0.15246457 0.094473869
0.0022872717 -0.13645194 0.10181932
0.0091400705 -0.12437174 0.11015733
-0.019029319 -0.17225696 0.096986718
-0.0063495501 -0.15500844 0.10497101
0.0023458451 -0.14221607 0.11427177
-0.013411106 -0.17056017 0.10982873
0.003027878 -0.14603439 0.1237165
-0.0039229533 -0.15830781 0.11877924
-0.022585288 -0.18787098 0.11515272
-0.0072501763 -0.16923532 0.12575351
-0.015403124 -0.18343809 0.12528379
0.0032879121 -0.1502644 0.13182251
-0.0017522866 -0.16477847 0.13702723
0.0051513822 -0.15306549 0.14347988
0.0090908073 -0.14139943 0.14275138
-0.051931277 -0.22515318 0.11912254
-0.016388107 -0.19025174 0.13528316
-0.010527014 -0.18117948 0.1368295
-0.049604826 -0.2271855 0.12988268
-0.021583911 -0.19568115 0.13244294
-0.02720692 -0.20465551 0.13858256
-0.12218791 -0.30239072 0.10429236
0.0026908417 -0.16118695 0.14993589
-0.11431252 -0.29106861 0.10377888
-0.12241496 -0.30717701 0.11424704
-0.1105075 -0.29264265 0.11746985
-0.1206931 -0.30950677 0.12443811
-0.16142727 -0.36250868 0.13359903
-0.1614532 -0.36735752 0.14484827
-0.16315162 -0.3744882 0.15267417
-0.15410025 -0.36150894 0.15644082
-0.15841746 -0.37102118 0.16207035
-0.16672696 -0.38521051 0.16068053
-0.20212394 -0.43284351 0.14351358
-0.20561196 -0.44284663 0.14931041
-0.17872657 -0.40745232 0.16586013
-0.17133415 -0.39816669 0.17042416
-0.16212788 -0.38374719 0.17377293
-0.19601439 -0.43383884 0.15905677
-0.15054794 -0.29510719 0.58365488
-0.14985685 -0.29499868 0.57851648
-0.15324812 -0.30175111 0.5872798
-0.14074364 -0.23522861 0.58040577
-0.14800109 -0.27769101 0.56235594
-0.15085442 -0.29470468 0.56501287
-0.14086434 -0.23698539 0.57440627
-0.13547038 -0.22031409 0.57522154
-0.13438155 -0.21200331 0.58010417
-0.13310328 -0.21328755 0.56931716
-0.1435492 -0.24615845 0.56715137
-0.14354932 -0.24105388 0.55454582
-0.14493324 -0.24768001 0.55368477
-0.1525306 -0.29039502 0.54498339
-0.15076387 -0.28497902 0.54800111
-0.15489639 -0.29416147 0.54182714
-0.12472799 -0.17912099 0.57648903
-0.12522906 -0.18205015 0.56884879
-0.14662346 -0.25820202 0.5518015
-0.11865038 -0.16089967 0.57752198
-0.1143052 -0.14735626 0.57714856
-0.11904622 -0.15519856 0.58304024
-0.11976947 -0.16765732 0.57006323
-0.14005385 -0.23020592 0.55076826
-0.14699183 -0.24768963 0.5403375
-0.11386022 -0.15018325 0.57138652
-0.14902975 -0.25565562 0.53571665
-0.11452763 -0.1536445 0.56545585
-0.13721788 -0.22029288 0.54504126
-0.10812654 -0.13195266 0.56960481
-0.1092619 -0.13051598 0.57440513
-0.15244038 -0.25887772 0.52491391
-0.10544398 -0.12049773 0.56755728
-0.10769975 -0.11708065 0.5743646
-0.10945297 -0.1383047 0.56365132
-0.15022154 -0.24821651 0.52589494
-0.10495469 -0.11294921 0.56790107
-0.10583622 -0.10849843 0.57040334
-0.10564185 -0.12581708 0.5626151
-0.10993388 -0.13871107 0.55573606
-0.15034105 -0.24632296 0.51785803
-0.14708318 -0.241258 0.52870381
-0.15281156 -0.25467217 0.52069128
-0.10413108 -0.11722941 0.55724651
-0.13971807 -0.22239718 0.52652472
-0.15325096 -0.25622433 0.51447773
-0.15837577 -0.27830344 0.50983477
-0.16174293 -0.28178158 0.51246947
-0.16679366 -0.28322539 0.51104593
-0.21475276 -0.28357613 0.48754111
-0.20620817 -0.27773145 0.48321739
-0.20879705 -0.28070787 0.49173808
-0.10332841 -0.10720737 0.55891323
-0.15583897 -0.27434397 0.50257111
-0.20563819 -0.2770893 0.47650951
-0.2009647 -0.27385932 0.48470598
-0.21166071 -0.28171691 0.47936237
-0.15414275 -0.26912081 0.5027594
-0.10298254 -0.088931091 0.55531937
-0.10344406 -0.10059915 0.56095278
-0.10445853 -0.085896142 0.55927134
-0.15696837 -0.27716753 0.49296808
-0.10224397 -0.087130159 0.54805785
-0.10281148 -0.10168619 0.55028832
-0.14409725 -0.22862914 0.50139064
-0.15395339 -0.27345937 0.48765326
-0.16010964 -0.28067875 0.48676762
-0.15139472 -0.26177999 0.49426126
-0.10232823 -0.074346952 0.54408079
-0.10218291 -0.085091077 0.54103303
-0.15085803 -0.26754692 0.48320404
-0.10194875 -0.070164628 0.53444964
-0.14978214 -0.2602537 0.47983116
-0.19471449 -0.29863554 0.44071895
-0.19296885 -0.2928755 0.44049263
-0.31708446 -0.55235207 0.34031248
-0.32434034 -0.56005448 0.33462915
-0.10962854 -0.020816771 0.52879971
-0.11319388 -0.024181014 0.5296241
-0.10993157 -0.027418802 0.52291363
-0.11192409 -0.030960802 0.52694309
-0.18888229 -0.28973973 0.43662
-0.19417679 -0.28952056 0.44602764
-0.30721787 -0.54192156 0.33717456
-0.31934351 -0.55661917 0.33206931
-0.10707252 -0.02388683 0.52227163
-0.10518406 -0.014534692 0.53232622
-0.10884497 -0.034986697 0.51890433
-0.10812914 -0.040581625 0.52468526
-0.18552247 -0.28811285 0.44132468
-0.18631114 -0.28753185 0.44569701
-0.18961076 -0.2920827 0.43426454
-0.1896673 -0.29883248 0.43260723
-0.31335175 -0.5505507 0.32995856
-0.32349089 -0.55995381 0.32706833
-0.10579625 -0.026079662 0.51480311
-0.101689 -0.021448927 0.51880306
-0.10864244 -0.031074828 0.51347977
-0.10789353 -0.03765649 0.51035899
-0.17393407 -0.28473735 0.44552159
-0.18339324 -0.28643617 0.43430457
-0.18715128 -0.29296535 0.42817935
-0.17848794 -0.28226995 0.4306621
-0.18498424 -0.28732824 0.42870352
-0.23707221 -0.41814116 0.37984562
-0.18386453 -0.28707311 0.42349535
-0.18396725 -0.29184985 0.41892391
-0.18499357 -0.30131602 0.42059442
-0.18226251 -0.31792867 0.41659984
-0.23488575 -0.40368038 0.38148588
-0.23100285 -0.39939278 0.38684136
-0.23514377 -0.4207221 0.37174013
-0.24688435 -0.43486041 0.37622824
-0.14997417 -0.21620591 0.45034692
-0.1465138 -0.21077168 0.44868451
-0.14655904 -0.21001153 0.45464441
-0.14649767 -0.21035543 0.45964891
-0.14968297 -0.21854509 0.45821795
-0.15334725 -0.22389027 0.44274047
-0.15391129 -0.22639826 0.44769946
-0.1802499 -0.27953601 0.42167908
-0.18204467 -0.31055236 0.41020796
-0.23429514 -0.4116495 0.37433237
-0.2412758 -0.43170306 0.36889812
-0.093671553 -0.018643593 0.50875986
-0.098611884 -0.023226965 0.49983916
-0.10300822 -0.026046619 0.50244814
-0.10707936 -0.029988091 0.50420254
-0.14561012 -0.21014363 0.44471827
-0.14316675 -0.206662 0.45053926
-0.15020844 -0.2196095 0.44101706
-0.18074679 -0.28022426 0.41755894
-0.17569937 -0.27654687 0.42585877
-0.22937924 -0.40413931 0.37385443
-0.24208434 -0.43410215 0.35994354
-0.14378437 -0.21582535 0.43642029
-0.14203514 -0.20764743 0.44269145
-0.18027557 -0.28492135 0.4102141
-0.17739058 -0.27495068 0.41121972
-0.23103364 -0.40847921 0.36821616
-0.23256269 -0.4210273 0.36036098
-0.25468212 -0.45033759 0.34545431
-0.095239252 -0.022496579 0.49443617
-0.099299476 -0.02637825 0.49144927
-0.10394078 -0.029334599 0.49515161
-0.14963105 -0.22598343 0.43308151
-0.23018497 -0.41321069 0.36138535
-0.17515141 -0.27268994 0.40942967
-0.1782552 -0.2917237 0.40035012
-0.18093809 -0.30177748 0.40283641
-0.17951015 -0.31395808 0.39552477
-0.22743006 -0.40778476 0.3625502
-0.094587952 -0.02654298 0.48231307
-0.09045063 -0.022860786 0.4861286
-0.096761718 -0.029025387 0.48159289
-0.099793211 -0.033651914 0.48086488
-0.17703488 -0.30072638 0.39319071
-0.17816426 -0.30817571 0.39148504
-0.17745791 -0.32402664 0.38960046
-0.22612661 -0.41040903 0.35271537
-0.22360614 -0.40684125 0.35833362
-0.083922081 -0.021429794 0.48493212
-0.22289838 -0.40924498 0.34992662
-0.22878265 -0.41718113 0.34942019
-0.22531483 -0.41368955 0.3443656
-0.22947033 -0.42073259 0.34301808
-0.095281266 -0.033170816 0.4693349
-0.1202713 -0.12996687 0.43819082
-0.12119665 -0.1257709 0.44692445
-0.12314878 -0.13958599 0.44723624
-0.17403898 -0.32140386 0.37716514
-0.17460068 -0.32671455 0.37655279
-0.17509037 -0.33226952 0.38066411
-0.17552431 -0.37619033 0.37171337
-0.17750069 -0.38156074 0.36879355
-0.23043998 -0.42294973 0.33446229
-0.091453835 -0.030314686 0.46744147
-0.097448386 -0.038390275 0.46700233
-0.10040339 -0.047613941 0.46061167
-0.10155214 -0.044627599 0.47131026
-0.11744002 -0.099084191 0.44676977
-0.11652307 -0.099826708 0.44076121
-0.11911508 -0.11452981 0.44185612
-0.11854369 -0.12141376 0.43633854
-0.18006942 -0.38805965 0.36522695
-0.21953991 -0.41190317 0.34288093
-0.22622791 -0.42027694 0.33034918
-0.23792712 -0.43130532 0.33298656
-0.084885098 -0.025639795 0.4686991
-0.079840101 -0.022602197 0.47358969
-0.087091908 -0.028857049 0.46150205
-0.094175175 -0.034857515 0.45762733
-0.091730915 -0.032206647 0.45854944
-0.096666954 -0.039621316 0.45774072
-0.11494908 -0.096380003 0.43773693
-0.11485547 -0.087422028 0.4506065
-0.1163312 -0.11099988 0.43490991
-0.17143226 -0.33560547 0.36711925
-0.17235386 -0.34174848 0.37397966
-0.17210098 -0.37079185 0.36494216
-0.1802747 -0.39302352 0.35152379
-0.26053321 -0.46350944 0.30939636
-0.26504579 -0.47136489 0.3153353
-0.1041932 -0.058787346 0.45095545
-0.11220279 -0.082032546 0.44267666
-0.11188055 -0.085511789 0.43667066
-0.11355437 -0.10094027 0.43342334
-0.17044829 -0.33133027 0.36508843
-0.23002197 -0.42461926 0.32302576
-0.23428193 -0.42857206 0.32078201
-0.099306084 -0.050834 0.44553691
-0.10467809 -0.062055282 0.44120362
-0.10757804 -0.070032351 0.4384706
-0.16963427 -0.34324148 0.35903025
-0.25431556 -0.45221108 0.31528136
-0.1014521 -0.059625134 0.43405175
-0.10649686 -0.071792565 0.43183059
-0.16828761 -0.33669546 0.35566893
-0.24220036 -0.43776724 0.30641142
-0.24639359 -0.44227859 0.31091782
-0.24900103 -0.44661671 0.30169129
-0.25454995 -0.4572497 0.29761937
-0.1670493 -0.3389909 0.3496168
-0.16835035 -0.34403631 0.34753934
-0.23690066 -0.43438891 0.30261043
-0.2436447 -0.44085035 0.29806796
-0.24905826 -0.4498319 0.29285485
-0.23902236 -0.43874738 0.29441229
-0.24523611 -0.44586962 0.29135826
-0.16719449 -0.34937304 0.33806247
-0.16880873 -0.35738671 0.33016357
-0.16418029 -0.3531315 0.3290562
-0.16963892 -0.35780567 0.3372004
-0.17449024 -0.37683403 0.32547972
-0.17565347 -0.37701294 0.31650758
-0.17795703 -0.38934389 0.31610709
-0.17948428 -0.39474142 0.32421431
-0.16796459 -0.3602733 0.3222611
-0.17033044 -0.36463207 0.32051852
-0.17156193 -0.36651897 0.32798311
-0.17340115 -0.37110105 0.31857079
-0.17238525 -0.36888081 0.31344795
-0.180456 -0.39872703 0.30971399
-0.18418545 -0.40785405 0.31074649
-0.16628757 -0.36415854 0.31186891
-0.17477743 -0.3725577 0.30906889
-0.17713226 -0.37749082 0.30436391
-0.17814815 -0.38294628 0.30604357
-0.18042494 -0.39277881 0.30171725
-0.16853978 -0.36900315 0.30225608
-0.1729539 -0.37409663 0.29837847
-0.17677511 -0.37964761 0.29535526
-0.18018946 -0.38690174 0.2939328
-0.18459953 -0.40064365 0.2907728
-0.17815655 -0.38438562 0.28964981
-0.18214333 -0.39222974 0.28552392
-0.18669787 -0.40309808 0.28154904
-0.21700008 -0.4531388 0.25985512
-0.2269997 -0.46225172 0.25919959
-0.13848995 -0.34029284 0.3166402
-0.13470025 -0.3361311 0.30843765
-0.17148614 -0.37780517 0.2887077
-0.17826805 -0.38636386 0.2846531
-0.19179031 -0.41634303 0.28138563
-0.19496891 -0.42262372 0.28178036
-0.21541852 -0.4516941 0.25463739
-0.22311777 -0.45976481 0.24898043
-0.17550033 -0.38665739 0.2794053
-0.1826428 -0.39476123 0.27825394
-0.18896858 -0.40791297 0.27041844
-0.16903587 -0.38459939 0.27392474
-0.18325232 -0.39933011 0.27034554
-0.19424167 -0.42004418 0.26636615
-0.21548986 -0.44998193 0.2434762
-0.17671192 -0.39378241 0.27087569
-0.18742388 -0.40765935 0.26329774
-0.19273947 -0.41684851 0.257788
-0.14068046 -0.34812775 0.29200476
-0.17207004 -0.39179492 0.26733205
-0.1782213 -0.40058726 0.26119944
-0.18771361 -0.41205934 0.25705504
-0.19667481 -0.42477718 0.25848201
-0.21341123 -0.44760978 0.23514399
-0.21733274 -0.45311633 0.23385593
-0.15164267 -0.36515266 0.27748066
-0.18489459 -0.41242853 0.25297287
-0.13229404 -0.33693236 0.28790358
-0.14932807 -0.36343548 0.27313143
-0.18602347 -0.41802162 0.24546289
-0.19282779 -0.42185208 0.24913613
-0.19369289 -0.42604199 0.24406211
-0.19673921 -0.42443201 0.25174478
-0.20751128 -0.44270918 0.23196654
-0.2081898 -0.44093567 0.23949753
-0.13308939 -0.33978131 0.27447429
-0.1389637 -0.34844777 0.27722752
-0.17717525 -0.40608165 0.2497561
-0.19215433 -0.42730469 0.23786098
-0.28267595 -0.5165931 0.18284795
-0.12276158 -0.31973246 0.29279098
-0.1673912 -0.39378825 0.25253156
-0.20189899 -0.43709859 0.23396942
-0.19890444 -0.43690965 0.22638091
-0.27699736 -0.51234227 0.17940038
-0.12100013 -0.32045069 0.27798718
-0.14470638 -0.35838848 0.26070312
-0.1748455 -0.40822747 0.24081402
-0.204313 -0.44445619 0.21961081
-0.11997318 -0.32035115 0.26851466
-0.1601004 -0.38511044 0.24863818
-0.1759948 -0.41366279 0.22993942
-0.18373771 -0.42159092 0.23083936
-0.1388161 -0.34979689 0.25707301
-0.16221987 -0.39118078 0.23598935
-0.16953367 -0.40369329 0.23320103
-0.14859115 -0.36624545 0.24569041
-0.18388088 -0.42372492 0.22192521
-0.19093302 -0.43208894 0.21543004
-0.19750877 -0.44135377 0.20937946
0.06779255 0.015457616 0.41665316
-0.20533848 -0.44985935 0.21117516
-0.20155261 -0.44874588 0.1993245
-0.20693508 -0.4548184 0.20282553
0.075405009 0.016789759 0.40649176
0.027512316 -0.058623549 0.36862278
0.025977723 -0.068495251 0.36455148
-0.18557949 -0.42796984 0.20800766
0.025363652 -0.080671385 0.35886127
-0.1209989 -0.32449651 0.25337958
-0.13168956 -0.33939797 0.25227746
-0.19229417 -0.43733308 0.19855876
0.028890956 -0.064035624 0.35892332
0.03085399 -0.057623591 0.36499539
-0.12956195 -0.33772638 0.24113967
-0.21762866 -0.4669975 0.18637083
0.03223832 -0.062568806 0.3539595
0.02843437 -0.070589043 0.35272533
0.01211336 -0.099398665 0.3399967
-0.0012202892 -0.099012792 0.33599591
0.0065683704 -0.10096462 0.33196476
0.018942783 -0.096714713 0.34511307
-0.0052331327 -0.10323753 0.32829532
-0.027961306 -0.16473942 0.30550629
-0.031736817 -0.16623829 0.3140769
-0.12560734 -0.33354515 0.23298652
-0.21050714 -0.45800689 0.17292897
0.028997477 -0.075026684 0.34262279
0.021491295 -0.096577898 0.33592239
0.024349654 -0.092931166 0.3364265
-0.080605082 -0.2804997 0.25564322
0.030551162 -0.069114998 0.34354615
0.035081394 -0.066649444 0.34039894
0.026076494 -0.088977285 0.3387512
0.012295687 -0.10195976 0.32555991
0.017969655 -0.10023782 0.32838884
0.0024471059 -0.10291474 0.32189137
-0.21203922 -0.4569793 0.16321746
0.032389786 -0.071257979 0.33194581
-0.1206376 -0.32824466 0.22046375
0.030085687 -0.075277321 0.32954335
0.028244048 -0.080743119 0.32791293
0.004994445 -0.10360191 0.31100452
-0.00093114749 -0.1047773 0.31061155
-0.0033608461 -0.10477322 0.31887394
0.036341716 -0.071747378 0.32512033
0.011335158 -0.10315932 0.31394884
-0.094821014 -0.29806051 0.23291348
-0.10403141 -0.30774018 0.2300204
0.029731208 -0.078969888 0.31707832
0.0089444378 -0.10258751 0.30337492
-0.0016242977 -0.10511205 0.30102965
-0.0059238332 -0.10926587 0.30511931
-0.0053435983 -0.10761967 0.31257674
-0.022297731 -0.15866983 0.28864545
-0.030843444 -0.21980032 0.26858425
0.003615625 -0.10290872 0.29909793
-0.019613033 -0.15087406 0.28563389
-0.024621869 -0.21080221 0.26417792
-0.046267588 -0.24115971 0.25268072
-0.079184912 -0.28147793 0.23004715
-0.112958 -0.31991896 0.20668305
0.081414394 -0.035905015 0.33950537
0.041176647 -0.073627956 0.3152537
0.032453105 -0.076892756 0.31329435
0.0014288565 -0.10384035 0.29331651
-0.003495845 -0.10832109 0.29105908
-0.018705687 -0.19681318 0.26577213
-0.020854281 -0.20336051 0.26158321
-0.086714424 -0.28907269 0.22095588
-0.11997242 -0.32820544 0.20249315
-0.13146138 -0.34039152 0.1964751
0.029551122 -0.080880754 0.30535337
0.027819924 -0.083728507 0.3104544
0.011123368 -0.1000195 0.29285488
-0.017518966 -0.14881732 0.27373272
-0.05222078 -0.2497319 0.24160132
-0.077594168 -0.27845204 0.21838281
0.077650227 -0.045102924 0.33269429
0.053413976 -0.070650257 0.31445172
0.03982367 -0.076185793 0.30465788
0.02699055 -0.084474199 0.29894334
0.0013816075 -0.10480323 0.28167537
-0.015929103 -0.14191565 0.27408925
-0.070440777 -0.27168065 0.22943756
-0.12043095 -0.32732081 0.18806022
0.054394592 -0.071095973 0.30979562
0.048078153 -0.073682711 0.30079544
0.040545773 -0.076901078 0.29467469
-0.0026569709 -0.10849391 0.28027111
-0.013567847 -0.13926111 0.25973305
-0.013972562 -0.13748685 0.26352459
-0.01190398 -0.13034996 0.26953706
-0.055445194 -0.2540763 0.23076151
-0.068922728 -0.26849416 0.21431813
0.055467848 -0.070665829 0.30045202
-0.00076927012 -0.10682087 0.27030388
-0.014197707 -0.19004618 0.25106111
-0.075493827 -0.27364749 0.20492467
0.091078818 -0.016984871 0.32985795
0.08890631 -0.021343721 0.32353958
0.047649737 -0.073004104 0.29130664
0.035613108 -0.080517232 0.28882489
0.039254528 -0.079083256 0.28374827
-0.011308572 -0.13824351 0.25193292
-0.061775297 -0.25944614 0.20697355
0.095568329 -0.0090094311 0.3313269
0.052239366 -0.068888769 0.2866396
0.044264283 -0.074688412 0.28054586
0.0027595672 -0.10348978 0.26480079
-0.0099669471 -0.12749824 0.25589082
-0.0085623423 -0.12250131 0.26109636
0.097421832 -0.0084564062 0.31991643
0.033411 -0.083086155 0.27791083
0.028535437 -0.085986443 0.27287698
-0.0027700199 -0.10799191 0.25709006
-0.005337792 -0.11305113 0.25779709
-0.008275901 -0.12703055 0.24906655
-0.050908018 -0.24636996 0.20418902
-0.14952871 -0.35420349 0.15195981
-0.15418346 -0.35673848 0.14455205
0.031362727 -0.084670737 0.266864
0.0016187282 -0.10338898 0.25125873
-0.00064230547 -0.10553639 0.24619031
-0.071640059 -0.26749671 0.19183223
-0.081769526 -0.27747589 0.18244058
-0.14120664 -0.34092423 0.14235713
-0.14329247 -0.34765843 0.15295009
-0.1495897 -0.34928992 0.13910437
0.038846228 -0.079947516 0.26691771
-0.16910081 -0.36907238 0.12436281
0.10294964 -0.00053288252 0.30804777
0.025400221 -0.087230459 0.25815475
0.020016218 -0.089562759 0.25330245
-0.01240999 -0.19439903 0.22046898
0.10846367 0.013415849 0.30404052
0.10330914 0.00074061583 0.29937476
0.033789322 -0.082431264 0.25594306
0.0098796515 -0.095951885 0.24095777
0.012687213 -0.095000803 0.2540814
-0.077605806 -0.27220362 0.17502157
-0.087454982 -0.28240651 0.16958451
-0.14124416 -0.33656001 0.12846084
0.11240751 0.025873609 0.30574313
0.019878844 -0.087726608 0.24014524
-0.080327995 -0.27315623 0.16416977
0.10827543 0.016734103 0.29598054
0.11433134 0.03080418 0.29411653
0.1110561 0.025373887 0.29240099
0.10191574 0.0018116145 0.28753236
0.028667226 -0.082628742 0.24288449
-0.0688648 -0.26073819 0.16735201
-0.09245231 -0.28450903 0.15754667
0.12006229 0.039268482 0.29376578
0.1056181 0.014287503 0.28385261
0.12811245 0.052614957 0.2976824
-0.092281759 -0.28118441 0.14419085
0.035979863 -0.075582668 0.23310919
0.027142782 -0.080508322 0.22473446
0.019189676 -0.087262325 0.22479935
0.0052870372 -0.15942419 0.20198186
0.00036355373 -0.17100349 0.20470306
-0.071389012 -0.25714207 0.14618291
-0.081263974 -0.26965806 0.14906895
-0.089044891 -0.27487862 0.13760248
0.007964192 -0.15520534 0.19638485
0.0073846551 -0.15087605 0.20342061
0.15472871 0.10645015 0.31168786
0.14853072 0.092823282 0.30201
0.1318502 0.058272228 0.28411242
0.022375206 -0.08323653 0.21241167
0.0095388955 -0.15055567 0.19114023
-0.06190804 -0.24866802 0.15184994
0.16356793 0.12344616 0.31361708
0.017575985 -0.089288063 0.20642193
0.023603113 -0.081372514 0.20088761
0.010273273 -0.14027558 0.1950247
-0.093004107 -0.27383745 0.12475345
-0.10039072 -0.28046143 0.11960984
0.20217428 0.28204364 0.35588193
0.15850691 0.11516511 0.29696703
0.15172769 0.10082787 0.29619855
0.13444431 0.064076044 0.27927336
0.015075707 -0.095791809 0.2013049
-0.063617118 -0.24454373 0.13391215
0.14814319 0.095285192 0.28582039
0.015855009 -0.0997269 0.19262911
-0.10501708 -0.28196496 0.11051696
0.16946799 0.13498366 0.30328465
0.1357756 0.070907116 0.26982871
0.0129417 -0.13724908 0.17657663
0.012178414 -0.13738799 0.18470943
0.17191362 0.14098048 0.29257309
0.16628261 0.12937163 0.29413524
0.016235625 -0.10335919 0.18297543
0.010934117 -0.14734444 0.17653368
-0.056473158 -0.23439191 0.12676293
-0.055570114 -0.23702878 0.1368451
0.14264579 0.088616803 0.26909459
0.020535678 -0.091598198 0.18062247
0.010173929 -0.1495045 0.16797644
0.12750621 0.058615394 0.25193259
0.013099774 -0.13680066 0.16429111
-0.062871762 -0.23430498 0.11367826
0.13724867 0.082707435 0.24805909
0.1398561 0.087216832 0.25582695
0.011868459 -0.1380906 0.15443885
0.16916962 0.13738964 0.27530426
0.12690793 0.061012276 0.2383382
0.021625623 -0.093844503 0.16430813
0.17325522 0.14607541 0.26679265
0.14119661 0.090106741 0.24331434
0.1328007 0.073306598 0.23291829
0.026863439 -0.079981774 0.16306366
0.16861673 0.13667041 0.25071114
0.14553086 0.096709795 0.23204766
0.13898563 0.085134342 0.23138797
0.025768587 -0.084431194 0.1495104
0.17700218 0.1505888 0.24754296
0.15354387 0.11027799 0.23158586
0.03018396 -0.073737979 0.14293298
0.010506922 -0.12723561 0.12516531
0.17990668 0.15693638 0.25733405
0.14859509 0.1021721 0.2185722
0.025224859 -0.086408354 0.1383165
0.031362299 -0.068445608 0.12913269
0.15726453 0.11747589 0.21639542
0.022103922 -0.088185124 0.1165788
0.17916545 0.15654704 0.22449949
0.16531867 0.13130355 0.21185721
0.17278257 0.14424306 0.21831563
0.17763884 0.15688883 0.20687367
0.17048016 0.14305905 0.19669721
0.01955436 -0.075412691 0.089315668
0.16321567 0.12913805 0.19209872
0.16322891 0.13352636 0.17545427
0.014863499 -0.079052456 0.077190042
0.010918166 -0.088577464 0.075030699
0.15089869 0.11711829 0.14468698
0.1466763 0.11187273 0.13630404
-0.28837532 -0.35266781 0.49016887
-0.28298271 -0.35236591 0.48594141
-0.38801938 -0.52567965 0.40581197
-0.48910201 -0.51197147 0.41236252
-0.39649129 -0.50042242 0.43042627
-0.35251293 -0.5705691 0.30643693
-0.34397933 -0.56790596 0.30633873
-0.3387334 -0.564345 0.29968858
-0.34638935 -0.56533659 0.29279202
-0.35665983 -0.56856292 0.29325825
-0.34280285 -0.55693424 0.27168986
-0.34793061 -0.55326635 0.26033404
-0.342563 -0.54450643 0.24638358
-0.33718044 -0.54632401 0.25095654
-0.33291039 -0.54772723 0.25574237
-0.32492834 -0.54675883 0.25952286
-0.32227439 -0.54832405 0.26797554
-0.33054647 -0.53920126 0.23928231
-0.31737182 -0.54041421 0.24715696
-0.32424709 -0.54065377 0.24377015
-0.32783619 -0.53563064 0.23063518
-0.30991995 -0.53847915 0.2478039
-0.30479375 -0.53802848 0.25561079
-0.31147769 -0.53696281 0.24028449
-0.31625941 -0.53602165 0.23345195
-0.2977542 -0.53144598 0.2380148
-0.32144058 -0.53263539 0.21542104
-0.3087894 -0.52195305 0.17847659
-0.31409395 -0.51155722 0.14419784
-0.29889104 -0.50989395 0.14368203
-0.30537444 -0.50823766 0.13582194
-0.28923866 -0.51049507 0.1513323
-0.2792252 -0.50546724 0.15081556
-0.28818509 -0.50684828 0.14151564
-0.29335591 -0.50544369 0.13352939
-0.2896708 -0.33505654 0.50940168
-0.33958653 -0.5441553 0.38484618
-0.22408451 -0.28593576 0.49084973
-0.22706129 -0.28757787 0.48823982
-0.21873222 -0.28480533 0.49263945
-0.22884627 -0.28626624 0.49282449
-0.22501306 -0.28466359 0.49662334
-0.33433655 -0.53856623 0.38666019
-0.21991174 -0.28584072 0.48330855
-0.21220984 -0.40877455 0.34711662
-0.29052451 0.044662558 0.57801706
-0.29848182 0.044233285 0.56860244
-0.29512805 0.044457156 0.57366312
-0.27410766 0.047267944 0.58434927
-0.28828648 0.037491187 0.55520469
-0.28476822 0.033479929 0.55069572
-0.26857919 0.035868309 0.55195713
-0.27534372 -0.356215 0.47998026
-0.27343103 -0.36100808 0.47733989
-0.27946523 -0.35467938 0.48168442
-0.26578379 -0.3625176 0.4776496
-0.38667122 -0.53133225 0.39948753
-0.24517554 -0.37230992 0.47106853
-0.2388567 -0.37880298 0.46118033
-0.48274302 -0.19464795 0.49780503
-0.46552527 -0.20567948 0.50274426
-0.60909051 -0.37362528 0.37249723
-0.59657091 -0.38598818 0.37733093
-0.51634943 -0.44063699 0.42060557
-0.29407007 0.041277952 0.56154191
-0.30569544 -0.32967153 0.51886201
-0.24820745 -0.38922027 0.43512228
-0.25509986 -0.38939664 0.42531651
-0.2301531 -0.38268229 0.4534896
-0.24005644 -0.38375703 0.45398554
-0.36980322 -0.57111007 0.33691472
-0.35722682 -0.57282656 0.32436562
-0.21995056 -0.39484358 0.40682986
-0.21128592 -0.39115882 0.41671824
-0.20911944 -0.39574796 0.4019416
-0.22451271 -0.39736295 0.39410636
-0.21349442 -0.39799014 0.39425346
-0.57818401 -0.43299109 0.31975892
-0.5213179 -0.48347929 0.31385183
-0.52505773 -0.48462203 0.3302882
-0.49462694 -0.52370852 0.35589758
-0.48631582 -0.52987951 0.36251867
-0.49358729 -0.52590692 0.37093976
-0.48770571 -0.52898246 0.37507981
-0.46839175 -0.53798938 0.35519588
-0.46466747 -0.53923625 0.36108527
-0.46718141 -0.53745723 0.34804031
-0.4736276 -0.53583544 0.36305496
-0.45641005 -0.54111403 0.34806994
-0.45471025 -0.54167974 0.360596
-0.44775894 -0.54280919 0.34077385
-0.39841494 -0.5654555 0.32556358
-0.38224223 -0.57162243 0.31216335
-0.3738364 -0.57253933 0.30540225
-0.40837684 -0.55845237 0.33629578
-0.39271 -0.56597054 0.3332755
-0.30845964 -0.22067986 0.54190248
-0.30832189 -0.22468643 0.53702968
-0.31452727 -0.21951629 0.53534842
-0.30174032 -0.22801007 0.53574359
-0.2964431 -0.23013334 0.52862853
-0.30185226 -0.22575445 0.54551828
-0.29712239 -0.22890791 0.5414927
-0.28466681 -0.23108296 0.53247023
-0.28946269 -0.23038642 0.53783786
-0.28774136 -0.23247597 0.52562368
-0.2912505 -0.23078971 0.54877782
-0.29537496 -0.22784403 0.55229497
-0.28456587 -0.23191078 0.54679435
-0.27086884 -0.2354725 0.52910167
-0.27995774 -0.23094974 0.53977954
-0.27455431 -0.2318911 0.53437757
-0.26763424 -0.23371749 0.53377527
-0.26754835 -0.23251499 0.53877866
-0.27553242 -0.23148426 0.54308629
-0.26479945 -0.23452467 0.54291487
-0.26150012 -0.2362442 0.53643972
-0.26306254 -0.2376247 0.53189576
-0.26004183 -0.2372859 0.54215628
-0.25569817 -0.2413739 0.54096895
-0.25682285 -0.24288212 0.53555405
-0.23020679 -0.28216478 0.51572645
-0.23867813 -0.27989724 0.5265066
-0.25923446 -0.24157993 0.55052757
-0.25346366 -0.24403328 0.54740304
-0.23650022 -0.28622407 0.53729773
-0.25102982 -0.2509965 0.55712366
-0.262229 -0.24693283 0.56589019
-0.26750967 -0.24273433 0.566396
-0.2584897 -0.24770567 0.56162864
-0.25701475 -0.25183001 0.56962824
-0.25381374 -0.25377324 0.56653303
-0.2482536 -0.25137609 0.54958332
-0.2593295 -0.24911845 0.57126504
-0.22883448 -0.30007502 0.55051047
-0.23293819 -0.30031991 0.55869991
-0.22283846 -0.30699492 0.55571765
-0.23210803 -0.30173826 0.56469172
-0.22429356 -0.30755112 0.56128031
-0.21879494 -0.31123391 0.56287712
-0.21518755 -0.31299379 0.57124364
-0.21116929 -0.31451586 0.58317983
-0.21108159 -0.31374851 0.59324992
-0.20441428 -0.31703094 0.58384079
-0.28435615 0.115044 0.62299782
-0.28709024 0.11102562 0.62080234
-0.27265513 0.11992601 0.62605786
-0.2743648 0.11168381 0.62221402
-0.27790844 0.10130441 0.60795397
-0.26585162 0.10846906 0.62002343
-0.28068981 0.097449303 0.60160947
-0.25914273 0.11067871 0.62276495
-0.263437 0.10547524 0.61692923
-0.268877 0.10359761 0.61313462
-0.25049806 0.11526131 0.62538326
-0.26513651 0.099470824 0.60365433
-0.27134678 0.098571718 0.60153097
-0.25455856 0.1004515 0.60829294
-0.26967934 0.094902344 0.59704399
-0.24105668 0.10708632 0.62272966
-0.24915318 0.10131469 0.61392152
-0.24707398 0.10486528 0.61987227
-0.29265386 0.051390368 0.58746451
-0.30231783 0.05097403 0.58527219
-0.29339334 0.047591329 0.58334696
-0.2837427 0.053730309 0.5901016
-0.28173783 0.049986076 0.58737421
-0.44263229 -0.1948816 0.51632112
-0.42650986 -0.18347248 0.52293462
-0.41061628 -0.19045131 0.52289742
-0.41640741 -0.20375213 0.51345348
-0.41029617 -0.19870424 0.5182476
-0.39020601 -0.18377133 0.52584565
-0.40899134 -0.19525239 0.52054024
-0.4205476 -0.21106793 0.50452846
-0.40095806 -0.19873635 0.51543361
-0.40618008 -0.2052757 0.50775421
-0.41191593 -0.21000724 0.50345582
-0.36871371 -0.17031455 0.53205174
-0.37657383 -0.1797892 0.52702397
-0.3934187 -0.19960164 0.51043969
-0.39088911 -0.20183265 0.50731421
-0.4479093 -0.28190407 0.5010336
-0.4476856 -0.2921353 0.4991211
-0.45408651 -0.28688565 0.49944684
-0.33641127 -0.16041011 0.53685564
-0.44949585 -0.29826245 0.4958567
-0.4562138 -0.29363227 0.49714893
-0.43832114 -0.28664684 0.50123602
-0.32969096 -0.17116748 0.52881753
-0.33776128 -0.31849149 0.52456319
-0.34092396 -0.32576397 0.52309906
-0.32733056 -0.31314155 0.52383888
-0.31954783 -0.31414917 0.52383798
-0.31235054 -0.30374265 0.52493083
-0.32723042 -0.32452267 0.52249187
-0.31414121 -0.32134897 0.52325082
-0.31060708 -0.31349763 0.5248453
-0.36822662 -0.39182684 0.47826955
-0.42663458 -0.48173583 0.44593561
-0.41627294 -0.4828223 0.44486177
-0.35080442 0.059705071 0.56922364
-0.35704461 0.066819273 0.56937569
-0.315034 0.086883247 0.59142625
-0.32048094 0.080150187 0.58797425
-0.33654666 0.058825973 0.5770393
-0.34077224 0.057060793 0.57194954
-0.31046301 0.078578345 0.59157133
-0.31951946 0.069663793 0.58758032
-0.33201712 0.054108825 0.57355273
-0.31656724 0.062279753 0.58754152
-0.31946021 0.057020634 0.58429742
-0.32642055 0.055372577 0.57955801
-0.32430422 0.051092763 0.57408953
-0.51102632 -0.2447747 0.46419796
-0.50481313 -0.2439186 0.46578726
-0.50241137 -0.23721983 0.46864977
-0.43751794 -0.17323716 0.52085286
-0.46545735 -0.20086186 0.50517982
-0.50216907 -0.25362036 0.46677658
-0.46451792 -0.22231051 0.48762059
-0.4742772 -0.22629707 0.48021674
-0.45184338 -0.2205345 0.49414113
-0.17847592 0.0090730488 0.5382331
-0.46822947 -0.28150523 0.4956803
-0.48007768 -0.29262441 0.48697892
-0.47237882 -0.28784856 0.49282065
-0.46272188 -0.28778279 0.49671334
-0.45933697 -0.27966183 0.49888521
-0.32068583 -0.17272031 0.52716887
-0.31215915 -0.16826986 0.52960896
-0.31698674 -0.1747807 0.52719057
-0.43732867 -0.31751996 0.47699636
-0.42919433 -0.31142551 0.47953415
-0.45129204 -0.32569301 0.47282895
-0.48508492 -0.387586 0.44606709
-0.27260485 -0.24643062 0.52433252
-0.26486096 -0.24576047 0.52720159
-0.27522054 -0.25732973 0.52149969
-0.27824739 -0.26125649 0.51768714
-0.2674526 -0.25398004 0.52469736
-0.47191605 -0.44319183 0.4452531
-0.26452339 -0.26152071 0.52128488
-0.26100624 -0.25311917 0.5279606
-0.25697574 -0.26562145 0.52203083
-0.23116329 -0.27387249 0.6038422
-0.23147471 -0.26833537 0.6031999
-0.23159787 -0.28133446 0.60237968
-0.22507398 -0.28934526 0.60664874
-0.55810046 0.082983427 0.47202593
-0.55228597 0.08371339 0.47858241
-0.3915233 0.28422254 0.56979823
-0.49489725 -0.24369708 0.46967769
-0.49350065 -0.25545487 0.47287446
-0.24387102 -0.25194824 0.58757275
-0.25388575 -0.25114229 0.57864892
-0.24914436 -0.25963885 0.5817458
-0.24141763 -0.26120788 0.59250849
-0.24584937 -0.26021001 0.58699661
-0.23650734 -0.26526567 0.59837699
-0.23511192 -0.25585708 0.59616596
-0.23772174 -0.27033791 0.59693134
-0.24139288 -0.26900381 0.59221429
-0.23543878 -0.2810818 0.59652942
-0.23784205 -0.28418887 0.58919609
-0.23047026 -0.2930353 0.59703243
-0.2296153 -0.28825483 0.60222489
-0.50314534 -0.51101077 0.39678293
-0.49845558 -0.51772738 0.39257005
-0.49296302 -0.52103269 0.39349928
-0.49559042 -0.51364982 0.40383476
-0.46744657 -0.52812886 0.40133354
-0.41460696 -0.55658978 0.33155927
-0.41189635 -0.55417597 0.34676868
-0.39301354 -0.56157184 0.34521261
-0.39071256 -0.55728447 0.35856399
-0.38612434 -0.55401886 0.36896279
-0.38549873 -0.54888254 0.37745574
-0.64760274 -0.33657053 0.28918472
-0.64573467 -0.34298649 0.29330885
-0.64343059 -0.34956089 0.29822752
-0.64666057 -0.3450191 0.31374434
-0.49301773 -0.23181109 0.47194517
-0.49494296 -0.23734981 0.46968624
-0.46490964 -0.53789318 0.37424618
-0.46399206 -0.53343368 0.39241925
-0.46632484 -0.53567892 0.38411826
-0.44662178 -0.54274571 0.36737648
-0.45691344 -0.53734362 0.38708496
-0.45463187 -0.53963685 0.38079533
-0.44202882 -0.54225165 0.3757365
-0.43094468 -0.54672611 0.35358623
-0.41765937 -0.54906845 0.35590619
-0.42560497 -0.54554021 0.36521482
-0.31508064 0.047414787 0.56873518
-0.31465331 0.051787816 0.58185053
-0.30895734 0.04780804 0.57694471
-0.31408218 0.045535937 0.56398374
-0.30319002 0.043644134 0.5643701
-0.30741227 0.055910494 0.58760923
-0.26541907 -0.23960525 0.52865469
-0.26059166 -0.24407455 0.53042179
-0.27171698 -0.23984995 0.52570105
-0.2586447 -0.25742796 0.52754134
-0.25542057 -0.25508827 0.53113514
-0.25174567 -0.26805291 0.52671343
-0.25120911 -0.26229972 0.53225416
-0.24993721 -0.26806459 0.5305512
-0.25036722 -0.25389883 0.53914696
-0.24828334 -0.26324332 0.53877431
-0.24655698 -0.27352312 0.53053892
-0.24754328 -0.27054262 0.53629911
-0.25042763 -0.24879041 0.54311293
-0.24608117 -0.25684294 0.54705387
-0.24394417 -0.26358485 0.55049598
-0.2434742 -0.26088202 0.55500776
-0.24573699 -0.25971514 0.56066787
-0.24156852 -0.26949948 0.56068099
-0.24879564 -0.26140833 0.57031703
-0.243064 -0.2667464 0.56374156
-0.25093225 -0.26025137 0.57562542
-0.24164359 -0.27360415 0.55744022
-0.24500142 -0.26983461 0.57376194
-0.2459031 -0.26953691 0.58129096
-0.24373181 -0.27540806 0.58022809
-0.24154367 -0.27839497 0.57224739
-0.24291338 -0.27531099 0.58506364
-0.24298593 -0.27133134 0.58815372
-0.24137084 -0.28063542 0.58100075
-0.23814891 -0.28841227 0.58140081
-0.23604086 -0.29538533 0.57516879
-0.23411594 -0.29916522 0.57320684
-0.232985 -0.29662332 0.5859527
-0.35486802 0.024341617 0.55695456
-0.34470388 0.024280556 0.55977666
-0.465992 -0.00063815375 0.53828484
-0.41924745 0.059331719 0.5350523
-0.41367042 0.065383449 0.53740406
-0.25001588 0.30113217 0.63936728
-0.54039299 -0.22579572 0.46798328
-0.36318821 0.025880177 0.554941
-0.39250943 -0.024982097 0.54488349
-0.39351135 -0.015414645 0.54443401
-0.39670268 -0.034981381 0.54546195
-0.3865619 -0.035803799 0.54583228
-0.26294488 0.19560154 0.63761568
-0.35138395 0.036036521 0.56041557
-0.25669536 0.19764687 0.63765752
-0.24990796 0.18889275 0.63785481
-0.22694528 0.20706849 0.6346302
-0.45087802 -0.18531303 0.51543593
-0.37151328 -0.13414279 0.53628892
-0.44822103 -0.2703245 0.50147247
-0.43175378 -0.27063173 0.50378549
-0.43788752 -0.2759296 0.50233585
-0.41447738 -0.27495122 0.51092839
-0.40649968 -0.3018446 0.50591367
-0.29376942 -0.16597553 0.53485703
-0.30212459 -0.16447224 0.53210616
-0.29841024 -0.17229877 0.533755
-0.41550365 -0.35843766 0.47925368
-0.41663197 -0.36963463 0.4747574
-0.60042948 -0.3462908 0.40230775
-0.47491226 -0.23261176 0.47907999
-0.46763936 -0.24054405 0.48591861
-0.47823033 -0.24555084 0.48141983
-0.33189204 -0.19631258 0.51693839
-0.33716539 -0.21013495 0.51032865
-0.34034124 -0.20303144 0.50699133
-0.34233099 -0.20858502 0.50596899
-0.33904871 -0.2157311 0.50781816
-0.32688576 -0.20965292 0.52597934
-0.33253434 -0.21177585 0.51735884
-0.33781984 -0.22120996 0.50835121
-0.33324146 -0.22125059 0.51349497
-0.32830292 -0.21832973 0.52206838
-0.66555953 -0.25107378 0.3368957
-0.38220569 0.2093277 0.578376
-0.40885201 -0.23905578 0.50426823
-0.40208796 -0.22679572 0.50450331
-0.39489776 -0.23795737 0.50908685
-0.36388373 -0.2818518 0.5274815
-0.36121199 -0.2771233 0.52738869
-0.66539758 -0.25708687 0.33183554
-0.65985 -0.28684714 0.30823183
-0.65847707 -0.30064699 0.32192895
-0.65769368 -0.30578262 0.33197972
-0.65667856 -0.31323189 0.32589158
-0.65620625 -0.31158215 0.31297261
-0.65306056 -0.32547581 0.31250164
-0.65198523 -0.33148783 0.31816292
-0.64980161 -0.33688506 0.3083753
-0.53606778 -0.28382236 0.44883183
-0.46167657 -0.46071693 0.44580752
-0.45823038 -0.46795148 0.44357815
-0.44587246 -0.4767969 0.44385067
-0.21492499 -0.29130882 0.61267018
-0.47100523 -0.010787982 0.53569978
-0.51513654 -0.19501042 0.48331103
-0.56484598 0.10967964 0.45907465
-0.56493038 -0.00051908864 0.4644745
-0.54595208 -0.11149904 0.46962187
-0.18073566 -0.027611926 0.54124141
-0.17067574 -0.025454951 0.54331332
-0.17372732 -0.034856174 0.54773951
-0.31897905 -0.19296086 0.5323261
-0.17007594 -0.047845803 0.55912924
-0.30862933 -0.18789858 0.53695911
-0.16359155 -0.049695082 0.56359535
-0.3143951 -0.19913952 0.54060036
-0.31074277 -0.19660178 0.54291445
-0.26533967 -0.16919979 0.5515995
-0.29858553 -0.19966272 0.55141371
-0.30570093 -0.1963266 0.54568249
-0.30625036 -0.20700754 0.55149406
-0.61456996 -0.12708393 0.40042913
-0.55580002 0.0083509171 0.47585192
-0.65395015 -0.224987 0.36296985
-0.65853161 -0.23046395 0.35515743
