# .PCD v0.7 - Point Cloud Data file format
VERSION 0.7
FIELDS x y z
SIZE 4 4 4
TYPE F F F
COUNT 1 1 1
WIDTH 1562
HEIGHT 1
VIEWPOINT 0 0 0 1 0 0 0
POINTS 1562
DATA ascii
-109.573 -18.352501 -70.402702
-109.285 -17.306499 -73.095703
-109.278 -15.0635 -79.999702
-110.186 -15.4985 -80.2267
-109.766 -15.1885 -80.456703
-109.282 -14.9715 -80.297699
-110.485 -20.9345 -64.388702
-109.757 -20.876499 -63.222698
-109.583 -20.4765 -64.096703
-109.587 -20.859501 -62.946701
-110.489 -20.9345 -64.394699
-109.583 -20.1765 -64.996696
-108.988 -18.408501 -69.193703
-109.269 -17.879499 -71.303703
-109.28 -16.814501 -74.598701
-109.289 -15.7545 -77.8937
-109.401 -14.9205 -80.655701
-109.576 -20.858601 -62.928699
-109.289 -20.3955 -63.793701
-109.282 -19.7896 -65.597702
-108.68 -16.2745 -75.1987
-108.989 -15.2915 -78.793701
-108.981 -15.0945 -79.398697
-109.358 -14.8885 -80.679703
-109.112 -14.7125 -80.813698
-108.993 -20.813499 -61.9977
-108.714 -20.793501 -61.553699
-108.381 -20.436501 -61.998699
-109.504 -20.852501 -62.813702
-109.236 -20.8305 -62.384701
-108.977 -20.6985 -62.299702
-108.697 -19.2355 -66.188698
-109.284 -18.879499 -68.2967
-108.383 -17.7605 -70.096703
-108.685 -15.8935 -76.395699
-108.985 -17.811501 -70.995697
-108.596 -20.7845 -61.3647
-109.134 -20.8225 -62.221699
-108.383 -19.247499 -65.596703
-108.676 -18.818501 -67.400703
-108.672 -17.3326 -71.902702
-107.479 -17.040501 -70.6987
-108.986 -16.6395 -74.595703
-108.696 -14.5555 -80.589699
-108.381 -20.2355 -62.597698
-108.394 -18.061501 -69.190697
-108.09 -16.613501 -73.092697
-108.387 -16.490499 -73.994698
-108.868 -14.5355 -80.947701
-108.41 -14.2045 -81.197701
-108.382 -14.1885 -81.197701
-108.527 -20.779499 -61.2547
-108.425 -20.7726 -61.0937
-108.091 -20.567499 -61.092701
-108.385 -20.643499 -61.395699
-108.083 -16.8976 -72.196701
-107.182 -15.1395 -76.097702
-107.479 -14.8265 -77.598701
-108.39 -14.7655 -79.3927
-108.096 -14.2225 -80.589699
-108.371 -14.1765 -81.219704
-108.089 -13.9675 -81.373703
-108.238 -20.7565 -60.791698
-107.481 -19.890499 -61.9977
-107.489 -19.6985 -62.5937
-107.187 -18.2395 -66.494698
-107.477 -18.1105 -67.400703
-108.079 -17.7805 -69.499702
-106.892 -16.807501 -70.391701
-108.082 -15.0685 -77.897697
-108.132 -20.748501 -60.6227
-107.79 -20.484501 -60.792702
-107.487 -19.997499 -61.694698
-107.486 -18.615499 -65.894699
-107.19 -17.2665 -69.492699
-107.489 -16.561501 -72.193703
-107.184 -16.1985 -72.7967
-107.49 -16.275499 -73.092697
-107.783 -16.244499 -73.697701
-107.783 -15.8605 -74.896698
-106.29 -14.1705 -77.592697
-107.485 -14.3555 -79.095703
-107.48 -14.1635 -79.6987
-107.491 -20.690599 -59.590698
-107.166 -20.658501 -59.064701
-106.898 -20.133499 -60.189701
-108.006 -20.737499 -60.419701
-106.88 -19.7295 -61.398701
-106.588 -19.3535 -61.994701
-107.18 -19.608601 -62.298698
-107.779 -18.887501 -65.598701
-106.592 -18.4755 -64.691704
-106.885 -17.473499 -68.2957
-107.181 -16.677601 -71.297699
-107.185 -16.4855 -71.895699
-106.884 -15.6465 -73.995697
-107.183 -13.8075 -80.2967
-107.519 -13.5526 -81.685699
-106.575 -13.0885 -81.501701
-106.956 -13.1415 -81.993698
-107.098 -20.6525 -58.9557
-106.936 -20.6415 -58.697701
-106.583 -20.4235 -58.696701
-106.595 -19.758499 -60.790699
-106.587 -19.1555 -62.5947
-105.988 -18.797501 -62.5947
-106.29 -17.615499 -66.792702
-105.683 -15.9215 -70.996696
-107.182 -13.9945 -79.697701
-107.138 -20.6555 -59.019699
-106.58 -20.227501 -59.298698
-106.282 -16.9305 -68.897697
-106.577 -17.005501 -69.199699
-105.985 -15.9055 -71.595703
-106.584 -16.2425 -71.596703
-106.28 -15.4995 -73.398697
-106.891 -15.8435 -73.3927
-106.583 -14.4235 -77.2967
-106.588 -14.0526 -78.494698
-106.284 -13.6005 -79.396698
-106.28 -13.1165 -80.898697
-106.584 -12.8725 -82.196701
-106.452 -20.6045 -57.923698
-106.183 -20.584499 -57.494701
-105.391 -20.102501 -57.492699
-105.986 -19.581499 -60.194698
-106.286 -15.3125 -73.995697
-105.388 -14.3375 -75.493698
-105.98 -14.2845 -76.6987
-106.56 -20.6105 -58.0947
-106.292 -20.4475 -58.091702
-106.649 -20.6185 -58.236698
-105.69 -19.6915 -59.293701
-105.681 -19.202499 -60.797699
-105.682 -16.7766 -68.297699
-105.994 -15.2475 -73.690697
-106.138 -20.5805 -57.4217
-105.686 -20.379499 -57.195702
-105.386 -17.856501 -64.395699
-105.984 -17.629499 -66.196701
-105.087 -17.108601 -66.194702
-105.682 -16.9725 -67.697701
-105.378 -16.314501 -69.199699
-105.685 -15.3575 -72.7957
-105.688 -15.5495 -72.193703
-105.384 -14.9045 -73.696701
-105.387 -13.6815 -77.594704
-105.688 -13.4715 -78.793701
-105.676 -12.6925 -81.201698
-105.977 -12.7596 -81.500702
-105.988 -12.4435 -82.522697
-106.105 -12.5275 -82.458702
-104.777 -19.143499 -59.299702
-105.685 -20.543501 -56.696701
-105.473 -20.525499 -56.355701
-105.384 -20.518499 -56.213699
-105.387 -20.3965 -56.5947
-105.082 -19.6185 -58.397701
-105.383 -19.2185 -60.196701
-105.078 -18.255501 -62.599701
-105.385 -18.0485 -63.7957
-105.388 -16.997499 -67.094704
-104.486 -14.6875 -72.7957
-105.685 -14.7875 -74.595703
-105.383 -14.1476 -76.096703
-105.394 -13.4065 -78.4907
-105.687 -12.9895 -80.294701
-105.3 -20.511499 -56.0797
-105.249 -20.5075 -55.9967
-104.789 -20.2295 -55.993698
-104.491 -19.7575 -56.8927
-105.085 -18.9445 -60.495701
-105.088 -17.682501 -64.3937
-104.791 -16.4615 -67.692703
-105.081 -15.6776 -70.697701
-105.386 -13.1165 -79.395699
-104.477 -12.8145 -78.799698
-105.094 -13.0575 -79.090698
-104.486 -12.3456 -80.2957
-105.085 -12.6655 -80.2957
-105.083 -12.2825 -81.496696
-105.089 -11.8135 -82.993698
-105.187 -11.8765 -82.960701
-104.786 -20.4695 -55.2547
-104.781 -17.2145 -65.297699
-104.493 -16.3885 -67.391701
-104.784 -15.9785 -69.196701
-104.78 -14.6605 -73.398697
-104.782 -14.1925 -74.897697
-104.795 -11.8485 -82.390701
-104.186 -19.379499 -57.495701
-104.791 -18.9625 -59.8927
-104.183 -18.695499 -59.596699
-104.189 -18.411501 -60.493698
-104.483 -18.2955 -61.396702
-104.785 -17.793501 -63.495701
-104.776 -17.5935 -64.1007
-103.889 -17.2715 -63.493698
-104.483 -15.9985 -68.596703
-104.178 -15.5435 -69.499702
-104.788 -15.2336 -71.593697
-104.189 -15.1795 -70.693703
-104.78 -13.9105 -75.798698
-104.779 -13.4455 -77.298698
-103.35 -10.9175 -82.926697
-105.089 -11.8065 -83.014702
-104.572 -20.4536 -54.912701
-104.249 -20.429501 -54.398701
-104.478 -20.335501 -55.099701
-103.879 -17.4555 -62.898701
-104.183 -17.5375 -63.196701
-104.179 -15.7325 -68.899696
-104.49 -15.1585 -71.292702
-103.877 -14.2545 -73.1007
-104.186 -13.4966 -76.095703
-103.877 -12.2085 -79.700699
-104.169 -11.6075 -82.105698
-103.96 -11.0155 -83.630699
-105.043 -11.7745 -83.039703
-103.653 -20.386499 -53.4487
-103.536 -20.377501 -53.259701
-103.284 -20.1145 -53.596699
-103.743 -20.393499 -53.591702
-104.133 -20.421499 -54.213699
-103.816 -20.3995 -53.707699
-103.289 -19.8235 -54.493698
-104.185 -19.9645 -55.695702
-102.984 -18.2705 -58.695702
-104.18 -17.727501 -62.598701
-103.292 -17.690599 -61.091702
-103.883 -16.6975 -65.2967
-103.589 -16.814501 -64.3937
-104.488 -16.5755 -66.793701
-103.582 -15.3065 -69.197701
-102.982 -14.2325 -71.597702
-102.681 -13.6035 -73.098701
-103.593 -12.9016 -76.9907
-103.58 -12.7055 -77.598701
-103.589 -11.7755 -80.593697
-104.182 -11.8065 -81.497704
-103.128 -20.3445 -52.608299
-102.682 -20.0455 -52.6973
-103.884 -19.297501 -57.196701
-102.98 -19.440599 -55.098701
-103.588 -19.512501 -55.993698
-102.683 -18.1915 -58.396702
-102.679 -17.994499 -58.998699
-103.587 -17.192499 -63.194698
-102.687 -16.7665 -62.894699
-103.282 -16.262501 -65.596703
-103.879 -16.036501 -67.399696
-102.985 -15.2545 -68.2957
-103.884 -14.0725 -73.695702
-103.589 -13.0835 -76.3937
-103.591 -12.3395 -78.791702
-102.394 -10.7755 -81.790703
-103.584 -11.3985 -81.7967
-103.065 -20.3405 -52.506199
-102.941 -20.3305 -52.3088
-102.387 -18.314501 -57.494701
-102.384 -14.8305 -68.596703
-103.281 -14.7695 -70.398697
-103.823 -10.9195 -83.705704
-103.193 -10.6906 -83.380699
-103.548 -10.7285 -83.855698
-102.985 -18.862499 -56.895699
-102.69 -17.717501 -59.8927
-102.983 -16.4655 -64.396698
-102.085 -12.7305 -74.895699
-102.678 -12.8665 -75.499702
-102.98 -12.5685 -76.998703
-101.789 -12.1145 -76.3937
-101.775 -11.8265 -77.301697
-102.395 -11.4235 -79.689697
-103.541 -10.7235 -83.859703
-102.973 -10.6025 -83.302696
-102.68 -10.5465 -82.999702
-102.734 -20.315599 -51.9795
-102.591 -20.306499 -51.7519
-102.384 -20.067499 -52.0961
-102.686 -19.8545 -53.294701
-102.686 -19.0725 -55.695702
-102.385 -18.7005 -56.2957
-101.784 -18.1516 -56.896702
-102.384 -17.1605 -61.096699
-102.687 -16.9555 -62.294701
-102.39 -16.036501 -64.692703
-102.394 -15.9485 -64.9907
-102.689 -14.5396 -70.093697
-102.384 -13.9075 -71.596703
-103.045 -12.8665 -76.146698
-102.985 -12.0115 -78.7957
-102.688 -10.7405 -82.3937
-102.744 -10.1776 -84.294701
-103.297 -10.5565 -83.992699
-102.679 -10.1735 -84.1987
-102.687 -19.463499 -54.494701
-102.085 -18.8125 -55.395699
-102.084 -16.3265 -63.195702
-102.396 -14.2885 -70.389702
-102.384 -13.7206 -72.196701
-102.385 -13.6285 -72.495697
-102.084 -11.5325 -78.7957
-101.492 -9.8425303 -83.291702
-102.081 -19.297501 -53.898701
-102.087 -19.0075 -54.794701
-102.089 -17.942499 -58.0937
-102.079 -17.5485 -59.298698
-102.089 -17.182501 -60.493698
-102.38 -15.4745 -66.498703
-102.08 -15.6785 -65.298698
-101.487 -14.9805 -66.494698
-102.389 -14.5605 -69.493698
-101.78 -14.1365 -69.798698
-101.785 -10.1785 -82.695702
-102.393 -9.9385405 -84.486702
-102.379 -9.9285297 -84.493698
-102.081 -9.8675203 -84.1987
-102.234 -20.279499 -51.182899
-101.482 -17.394501 -58.697701
-101.781 -17.9555 -57.4977
-102.075 -17.7355 -58.701698
-101.795 -16.9245 -60.7897
-102.083 -16.046499 -64.096703
-101.483 -15.8945 -63.4967
-101.786 -15.6075 -64.995697
-102.083 -15.4955 -65.896698
-102.082 -14.4836 -69.196701
-101.48 -13.7915 -70.398697
-101.181 -13.5375 -70.6987
-101.785 -13.1225 -73.095703
-101.481 -11.4845 -77.897697
-101.787 -11.5565 -78.194702
-101.49 -10.7645 -80.292702
-102.075 -11.0665 -80.301697
-101.48 -10.2055 -82.098701
-101.183 -12.2475 -74.896698
-101.676 -20.240499 -50.293701
-101.488 -20.2265 -49.9939
-101.189 -19.9485 -50.293701
-101.307 -20.2115 -49.7034
-101.479 -19.529499 -52.099201
-101.486 -18.654499 -54.7957
-101.478 -18.355499 -55.699699
-101.187 -17.800501 -56.894699
-100.883 -17.431499 -57.4967
-101.193 -16.5835 -60.790699
-101.775 -16.435499 -62.301701
-101.482 -16.0795 -62.897701
-101.483 -15.2565 -65.596703
-101.191 -13.8185 -69.792702
-100.585 -12.6646 -72.495697
-101.489 -12.9655 -73.093697
-101.187 -11.7005 -76.694702
-101.186 -11.1516 -78.494698
-101.484 -11.1255 -79.096703
-101.78 -10.7295 -80.898697
-101.186 -10.2375 -81.494698
-101.184 -19.554501 -51.496498
-100.584 -18.907499 -52.396599
-101.484 -19.0485 -53.596699
-101.185 -17.990499 -56.2957
-101.489 -17.2085 -59.293701
-101.189 -17.320499 -58.3937
-101.183 -16.9415 -59.596699
-100.295 -14.6975 -65.289703
-100.594 -15.0445 -64.690697
-101.485 -14.7025 -67.395699
-101.195 -14.3645 -67.9897
-100.882 -13.0085 -71.897697
-101.183 -11.4205 -77.596703
-101.893 -9.5975304 -84.759697
-101.5 -9.3305397 -84.973701
-100.606 -20.1555 -48.580101
-100.584 -19.877501 -49.396198
-100.58 -19.6805 -49.998199
-100.589 -18.6185 -53.293701
-100.885 -18.6975 -53.595699
-100.588 -17.932501 -55.394699
-100.881 -17.810499 -56.298698
-101.187 -16.3925 -61.394699
-100.883 -16.126499 -61.696701
-100.286 -15.7955 -61.694698
-100.285 -15.1425 -63.7957
-100.885 -14.6505 -66.495697
-100.881 -14.0995 -68.297699
-100.284 -13.7766 -68.2957
-100.588 -13.4035 -70.093697
-100.88 -12.5465 -73.398697
-100.887 -10.6355 -79.694702
-100.587 -9.7445402 -82.094704
-100.579 -20.1525 -48.536499
-100.586 -19.2985 -51.195202
-100.283 -18.1476 -54.197701
-99.987801 -17.1985 -56.5947
-100.888 -17.2435 -58.0937
-100.882 -16.5905 -60.196701
-99.688797 -15.6445 -61.0937
-99.9888 -15.3495 -62.5937
-100.282 -14.3195 -66.496696
-100.88 -11.0805 -78.1987
-100.884 -10.4505 -80.2967
-100.583 -9.92554 -81.496696
-99.989799 -9.1615295 -82.992699
-101.223 -9.1415396 -85.124702
-100.668 -8.7655296 -85.427696
-100.848 -8.8875399 -85.329697
-99.680801 -8.3635302 -85.097702
-99.983803 -19.5215 -49.3965
-99.6828 -18.473499 -52.096901
-100.282 -17.0826 -57.4977
-100.591 -16.883499 -58.692699
-99.984802 -16.1705 -59.895699
-100.588 -16.1525 -61.0947
-99.983803 -12.7145 -71.2967
-100.289 -12.0505 -73.993698
-99.384804 -10.4855 -77.595703
-100.282 -10.6805 -78.497704
-99.392799 -10.0465 -79.091698
-100.581 -10.1105 -80.898697
-100.287 -9.5895395 -82.094704
-100.945 -8.95154 -85.276703
-100.583 -8.8205299 -85.096703
-99.979797 -8.6955299 -84.498703
-100.243 -8.4795198 -85.659698
-100.025 -8.33255 -85.778702
-100.002 -20.109501 -47.615898
-99.985802 -20.108601 -47.590401
-99.981796 -20.1045 -47.597099
-100.567 -20.1516 -48.5172
-100.13 -20.119499 -47.821201
-99.681801 -19.247499 -49.697399
-99.679802 -19.0515 -50.298401
-99.383797 -18.6845 -50.896301
-100.285 -18.731501 -52.395901
-100.283 -17.9505 -54.7967
-99.6828 -17.797501 -54.196701
-99.3778 -16.943501 -56.299702
-99.677803 -16.178499 -59.299702
-99.681801 -14.8105 -63.7967
-99.979797 -14.8865 -64.097702
-99.393799 -12.6776 -70.390701
-99.982803 -12.9905 -70.397697
-99.685799 -12.0956 -72.794701
-99.989799 -11.9825 -73.692703
-100.289 -11.6835 -75.193703
-99.374802 -10.6565 -77.001701
-99.381798 -9.5885296 -80.597702
-100.99 -8.9825401 -85.252701
-99.079803 -20.054501 -46.156898
-98.943802 -20.0445 -45.940399
-98.490799 -19.626499 -46.3923
-99.429802 -20.074499 -46.709801
-99.229797 -20.0625 -46.393299
-99.701797 -20.092501 -47.141899
-99.084801 -19.679501 -47.295601
-99.387802 -17.4335 -54.793701
-99.6828 -16.927601 -56.896702
-99.680801 -16.362499 -58.697701
-99.382797 -15.7425 -60.196701
-99.080803 -14.5725 -63.4977
-99.677803 -14.0815 -66.199699
-99.084801 -12.0526 -71.895699
-99.6828 -11.6385 -74.2967
-99.982803 -11.4315 -75.496696
-99.382797 -11.0255 -75.797699
-99.688797 -9.5625296 -81.193703
-99.6838 -8.72855 -83.896698
-99.387802 -19.3685 -48.794201
-99.080803 -19.4795 -47.8979
-99.375801 -18.290501 -52.100899
-99.090797 -17.165501 -55.092701
-99.386803 -16.570499 -57.494701
-99.079803 -16.0275 -58.6987
-99.679802 -15.3655 -61.998699
-99.385803 -15.3875 -61.394699
-99.080803 -15.1235 -61.697701
-98.477798 -14.3305 -63.199699
-99.083801 -14.1245 -64.996696
-99.684799 -14.3615 -65.2957
-99.378799 -13.7395 -66.798698
-98.784798 -13.1516 -67.695702
-99.083801 -13.0435 -68.596703
-99.0858 -11.8695 -72.494698
-99.382797 -8.3025503 -84.7967
-98.774803 -7.63553 -86.001701
-99.395798 -7.91254 -86.121696
-99.1558 -7.7505498 -86.252701
-98.787804 -18.922501 -49.0942
-98.788803 -18.4375 -50.593601
-98.785797 -17.852501 -52.395401
-98.782799 -16.418501 -56.896702
-98.483803 -14.8865 -61.396702
-99.079803 -13.4865 -67.098701
-98.7808 -12.7036 -69.197701
-98.777802 -11.6165 -72.799698
-99.388802 -11.6675 -73.693703
-99.070801 -8.8755503 -82.404701
-98.187798 -18.4795 -49.3941
-99.0858 -16.8745 -55.994701
-98.491798 -13.8925 -64.691704
-98.185799 -13.4595 -65.595703
-98.483803 -13.4385 -66.196701
-98.472801 -12.0945 -70.702698
-98.485802 -11.9225 -71.2957
-98.784798 -11.1695 -74.2957
-98.4888 -10.9265 -74.593697
-98.784798 -10.7165 -75.7957
-98.489799 -10.2065 -76.993698
-98.486801 -9.4015503 -79.694702
-98.484802 -8.5805397 -82.395699
-98.4748 -7.5775499 -85.701698
-98.675797 -7.4325299 -86.514702
-98.1838 -19.1525 -47.296101
-98.478798 -17.193501 -53.898701
-98.1838 -17.407499 -52.696301
-98.486801 -16.5375 -55.994701
-98.785797 -15.5025 -59.895699
-97.887802 -13.0315 -66.494698
-98.486801 -12.7265 -68.594704
-98.481796 -11.5535 -72.497704
-98.787804 -10.9005 -75.193703
-98.791801 -9.3805199 -80.291702
-97.884804 -8.7325401 -80.895699
-98.1838 -8.7005301 -81.496696
-98.490799 -8.40555 -82.992699
-98.593803 -7.37854 -86.558701
-97.996803 -19.9695 -44.424
-97.814796 -19.9545 -44.1329
-97.880798 -19.8435 -44.598099
-98.486801 -20.0075 -45.208401
-98.191803 -18.963499 -47.8918
-97.588799 -17.6525 -50.893501
-98.192802 -17.8015 -51.491299
-98.480797 -16.9125 -54.797699
-97.888802 -15.3685 -58.693699
-97.882797 -15.0945 -59.596699
-97.886803 -14.9185 -60.194698
-97.883797 -14.3755 -61.995701
-98.179802 -13.9885 -63.798698
-97.884804 -12.3165 -68.895699
-97.584801 -11.4505 -71.2957
-98.185799 -11.6735 -71.594704
-98.179802 -11.1265 -73.398697
-98.1968 -8.0805397 -83.5877
-97.880798 -19.654499 -45.1982
-97.579803 -17.4515 -51.498699
-97.8908 -17.436501 -52.0923
-97.5858 -16.786501 -53.5947
-97.883797 -16.483601 -55.095699
-97.583801 -16.033501 -55.9967
-97.583801 -15.8465 -56.595699
-98.1838 -15.8985 -57.4967
-97.587799 -15.0226 -59.293701
-96.986801 -14.0705 -61.394699
-97.584801 -13.7575 -63.495701
-97.285797 -13.1535 -64.995697
-96.985802 -12.2885 -67.394699
-97.576797 -11.1765 -72.200699
-97.884804 -10.2565 -75.7957
-97.581802 -9.2945299 -78.497704
-97.879799 -9.1795301 -79.398697
-97.883797 -8.9145498 -80.2957
-97.278801 -8.0645399 -82.098701
-97.278801 -7.88553 -82.699699
-96.980797 -7.5595398 -83.297699
-97.5858 -7.5015302 -84.494698
-97.281799 -6.99054 -85.697701
-97.580803 -7.0475502 -85.997704
-98.376801 -7.23453 -86.677696
-98.187798 -7.2565298 -86.293701
-98.304802 -7.18753 -86.716698
-97.291801 -19.1175 -45.791698
-97.5868 -18.9016 -46.994701
-97.277802 -19.0105 -46.099701
-97.884804 -18.879499 -47.596001
-97.579803 -18.511499 -48.198601
-97.881798 -18.109501 -49.997501
-96.984802 -17.2125 -51.195499
-97.887802 -15.5535 -58.0937
-96.983803 -14.9645 -58.395699
-97.283798 -14.4095 -60.7957
-97.5858 -14.0315 -62.5947
-97.873802 -14.0925 -62.901699
-97.584801 -13.2265 -65.2957
-97.282799 -12.7995 -66.196701
-97.283798 -11.9995 -68.895699
-97.578796 -10.7285 -73.699699
-97.581802 -10.4615 -74.597702
-97.578796 -9.6495399 -77.299698
-97.283798 -8.7885399 -79.696701
-97.284798 -7.4435401 -84.195702
-97.888802 -7.4705501 -85.092697
-96.381798 -6.9095502 -84.496696
-97.357803 -19.921499 -43.4034
-97.284798 -19.7845 -43.695702
-96.686798 -18.3785 -46.994701
-96.381798 -17.3445 -49.697201
-96.977798 -17.3965 -50.5998
-96.984802 -17.0215 -51.795601
-97.587799 -16.4125 -54.793701
-97.276802 -16.143499 -55.099701
-96.986801 -15.2415 -57.494701
-96.684799 -14.4385 -59.595699
-97.287804 -13.8716 -62.5937
-96.088799 -12.3465 -65.593697
-96.983803 -12.5535 -66.495697
-96.679802 -10.4475 -73.098701
-97.290802 -9.77353 -76.3927
-96.6828 -9.5535297 -76.096703
-96.989799 -8.3735399 -80.592697
-96.984802 -7.38553 -83.895699
-97.291801 -7.1765399 -85.091698
-97.424797 -6.6205401 -87.195702
-97.5438 -6.6985502 -87.130699
-97.283798 -6.5535302 -87.195702
-97.332802 -6.5615201 -87.245697
-96.386803 -17.633499 -48.794701
-96.690804 -16.6665 -52.391998
-97.283798 -16.8055 -52.9967
-96.686798 -16.005501 -54.494701
-97.288803 -15.9665 -55.693699
-96.680801 -15.7235 -55.397701
-96.981796 -13.7955 -62.2967
-96.984802 -11.9305 -68.595703
-96.978798 -11.6625 -69.499702
-96.081802 -10.6705 -71.297699
-97.281799 -10.3995 -74.297699
-96.6828 -10.0935 -74.297699
-96.983803 -9.9765301 -75.196701
-96.0868 -9.6105299 -74.894699
-95.784798 -9.1885405 -75.7957
-96.981796 -9.5265503 -76.697701
-96.9888 -9.17453 -77.8937
-96.9888 -6.5865502 -86.593697
-98.1138 -7.0645399 -86.820702
-97.231796 -6.49753 -87.301697
-96.926804 -19.8895 -42.715401
-96.6828 -19.7195 -42.7967
-96.378799 -18.6805 -45.498901
-95.477798 -15.7076 -53.299702
-95.775803 -15.3185 -55.1007
-96.689796 -14.6216 -58.992699
-96.6828 -14.0815 -60.7967
-96.981796 -12.1075 -67.996696
-96.385803 -11.7955 -67.995697
-96.686798 -9.2895498 -76.994698
-96.689796 -7.5955501 -82.692703
-96.689796 -7.2395301 -83.8927
-96.6828 -6.8765302 -85.096703
-96.560799 -6.06955 -87.666702
-97.117798 -6.42453 -87.363701
-96.685799 -19.871599 -42.331402
-96.384804 -18.9715 -44.595699
-96.685799 -18.185499 -47.5951
-95.482803 -17.3985 -47.896801
-96.082802 -16.983601 -50.297199
-96.082802 -15.7635 -54.196701
-95.785797 -15.6935 -53.894699
-96.684799 -15.0775 -57.495701
-96.082802 -14.4735 -58.396702
-96.386803 -14.4545 -58.994701
-96.088799 -13.5885 -61.3937
-96.684799 -13.4565 -62.895699
-96.384804 -12.9385 -64.095703
-96.083801 -10.8456 -70.696701
-96.385803 -11.3535 -69.495697
-96.088799 -9.7905302 -74.292702
-95.190804 -8.1855497 -78.191704
-96.077797 -8.4475403 -78.799698
-96.381798 -8.4225502 -79.397697
-96.695801 -7.68753 -82.388702
-96.387802 -7.0905499 -83.8937
-96.084801 -6.4095502 -85.695702
-96.0868 -6.3235502 -85.994698
-95.787804 -6.0065298 -86.593697
-96.385803 -6.2085299 -86.895699
-95.778801 -5.7445402 -87.498703
-96.5998 -19.865499 -42.194099
-96.213799 -19.8365 -41.578098
-96.094803 -19.5725 -42.1903
-96.133797 -19.8305 -41.450901
-96.0858 -19.7565 -41.5951
-96.620796 -19.8675 -42.227699
-95.489799 -19.0275 -42.7929
-95.781799 -18.047501 -46.3979
-94.5868 -17.0765 -47.295101
-95.784798 -17.3825 -48.495701
-95.190804 -17.0445 -48.492199
-96.078796 -16.699499 -51.199001
-96.385803 -15.3755 -55.995701
-96.379799 -15.1885 -56.598701
-96.081802 -14.1105 -59.597698
-95.778801 -13.8615 -59.898701
-95.491798 -13.1815 -61.6917
-94.881798 -12.3175 -63.4977
-95.486801 -10.0135 -72.494698
-96.080803 -9.1605196 -76.398697
-95.493797 -8.60254 -77.290703
-96.074799 -8.8035297 -77.6017
-96.090797 -8.1905499 -79.692703
-95.480797 -7.6205401 -80.598701
-96.087799 -7.5655499 -81.793701
-96.081802 -7.2965398 -82.697701
-96.383797 -7.2655301 -83.2967
-96.170799 -5.8215299 -87.8787
-95.186798 -18.373501 -44.294601
-96.081802 -18.122499 -46.697498
-96.081802 -17.0765 -49.997501
-94.886803 -15.3865 -53.294701
-94.884804 -14.8385 -55.095699
-95.480797 -14.4305 -57.4977
-95.481796 -13.8815 -59.297699
-95.1838 -12.6565 -62.895699
-95.181801 -11.6955 -66.197701
-95.481796 -11.6776 -66.797699
-95.782799 -11.4836 -67.996696
-95.481796 -9.6565199 -73.697701
-95.1838 -7.7385302 -79.696701
-95.785797 -7.5955501 -81.195702
-95.783798 -6.7965398 -83.896698
-95.663803 -19.7925 -40.696999
-95.478798 -19.7775 -40.400398
-95.180801 -19.508499 -40.697899
-95.482803 -18.355499 -44.896801
-94.281799 -17.377501 -45.797501
-95.477798 -16.084499 -52.099602
-95.480797 -12.3705 -64.397697
-95.482803 -10.7995 -69.7967
-95.486801 -9.3925505 -74.594704
-94.886803 -8.2105398 -77.594704
-95.185799 -7.1245399 -81.794701
-95.481796 -6.1195402 -85.697701
-95.180801 -5.62854 -86.897697
-95.478798 -5.5985398 -87.499702
-95.540802 -5.4235201 -88.221703
-95.343803 -5.2975502 -88.328697
-95.181801 -19.1325 -41.897202
-94.581802 -18.4016 -43.097198
-95.1828 -17.606501 -46.696701
-94.587799 -16.327499 -49.694
-95.486801 -16.2745 -51.494999
-95.191803 -14.4615 -56.891701
-95.180801 -13.5445 -59.897701
-94.581802 -12.8765 -61.097698
-95.481796 -12.9955 -62.297699
-94.883797 -12.8586 -61.696701
-95.188797 -11.9595 -65.293701
-95.480797 -11.4175 -67.697701
-94.5858 -10.3435 -69.794701
-95.186798 -10.1265 -71.594704
-94.882797 -9.7955303 -72.196701
-94.583801 -9.0225496 -74.2967
-95.487801 -8.7755404 -76.693703
-94.577797 -6.9135399 -81.499702
-95.184799 -5.1965299 -88.415703
-95.1838 -5.28754 -88.096703
-95.288803 -19.7605 -40.0951
-95.186798 -19.699499 -40.0947
-94.587799 -19.161501 -40.694401
-94.576797 -16.598499 -48.800499
-94.882797 -16.306499 -50.296902
-94.888802 -15.7575 -52.093399
-95.1838 -15.7355 -52.696098
-94.288803 -13.8915 -57.193699
-94.5868 -13.8655 -57.794701
-95.181801 -12.1265 -64.697701
-94.583801 -11.8135 -64.696701
-93.982803 -10.6425 -67.696701
-94.885803 -10.9345 -68.294701
-94.5868 -8.1455402 -77.294701
-94.888802 -6.18854 -84.493698
-94.882797 -5.6595502 -86.2967
-94.883797 -5.2305298 -87.7967
-94.714798 -4.9025302 -88.6717
-94.2798 -4.8615398 -88.098701
-95.185799 -19.752501 -39.929699
-93.678802 -18.629499 -40.698601
-94.289803 -18.6115 -41.893002
-94.5868 -18.1185 -43.9949
-94.576797 -17.2596 -46.700298
-93.6828 -15.6405 -50.296902
-94.580803 -15.9525 -50.898102
-94.882797 -15.9365 -51.496899
-93.980797 -15.3475 -51.797699
-93.690804 -13.3075 -58.092701
-94.582802 -11.4706 -65.896698
-93.989799 -10.4745 -68.292702
-94.284798 -9.40555 -72.495697
-94.283798 -7.7325401 -78.196701
-94.584801 -7.4425402 -79.695702
-94.584801 -6.5655499 -82.695702
-94.580803 -6.30054 -83.597702
-93.983803 -5.6655302 -84.7967
-94.883797 -5.4015498 -87.195702
-93.981796 -4.8915401 -87.497704
-94.281799 -4.6325402 -88.9067
-94.727798 -19.717501 -39.197399
-93.982803 -19.2775 -39.196899
-93.982803 -18.241501 -42.496899
-93.978798 -17.768499 -43.999001
-93.6828 -16.283501 -48.1968
-94.284798 -16.1565 -49.6959
-93.982803 -15.6225 -50.8969
-94.283798 -15.1485 -52.995701
-93.982803 -13.9955 -56.2967
-93.077797 -12.2655 -60.499699
-94.283798 -12.2735 -62.596699
-94.287804 -11.8315 -64.093697
-93.376801 -10.7565 -66.199699
-93.982803 -9.5135498 -71.596703
-93.979797 -8.7185402 -74.298698
-94.287804 -8.6955299 -74.8937
-94.281799 -8.4275503 -75.797699
-94.2808 -5.8945298 -84.498703
-94.288803 -5.5515399 -85.692703
-94.324799 -19.6845 -38.552502
-93.790802 -19.640499 -37.696201
-93.6828 -19.5765 -37.696602
-94.549797 -19.702499 -38.9133
-94.539803 -19.7015 -38.896801
-93.382797 -19.0215 -38.896599
-93.380798 -16.8645 -45.798
-93.983803 -12.9185 -59.896702
-93.687798 -11.9655 -62.5937
-93.980797 -11.9345 -63.197701
-93.983803 -9.7745399 -70.696701
-93.684799 -9.0145302 -72.7957
-93.680801 -8.3015404 -75.197701
-93.986801 -7.9335299 -76.994698
-94.290802 -7.91254 -77.591698
-93.985802 -6.3635302 -82.395699
-92.782799 -5.5185199 -83.2967
-93.385803 -5.3805199 -84.7957
-93.6838 -5.0095501 -86.595703
-94.2658 -4.62253 -88.915703
-93.686798 -15.4595 -50.894402
-93.087799 -13.9685 -54.794701
-94.285797 -14.4285 -55.394699
-93.685799 -13.9295 -55.994701
-93.6828 -12.1415 -61.9967
-93.681801 -11.4295 -64.396698
-93.381798 -10.2466 -67.996696
-93.687798 -9.7965403 -70.094704
-92.782799 -9.1575298 -70.696701
-93.381798 -9.0345497 -72.197701
-93.681801 -7.7775302 -76.997704
-93.375801 -7.5395498 -77.300697
-93.681801 -6.7375498 -80.597702
-92.7948 -6.91153 -78.4907
-93.6838 -6.5655499 -81.196701
-92.783798 -5.9535499 -81.7967
-93.749802 -19.637501 -37.630299
-93.614799 -19.626499 -37.4137
-93.384804 -18.835501 -39.495899
-93.088799 -18.477501 -40.0938
-92.484802 -17.6635 -41.595501
-93.677803 -17.783501 -43.399799
-93.385803 -17.7115 -43.095001
-93.382797 -16.490499 -46.9967
-93.381798 -14.7515 -52.697399
-93.081802 -15.1315 -50.897301
-93.380798 -12.6925 -59.597698
-93.687798 -12.3225 -61.3937
-93.0858 -11.8335 -61.994701
-93.383797 -11.6285 -63.196701
-93.678802 -11.6015 -63.798698
-93.387802 -10.5075 -67.093697
-93.688797 -10.0585 -69.193703
-93.386803 -9.5535297 -70.394699
-93.383797 -7.7165198 -76.695702
-93.685799 -5.3505201 -85.394699
-93.0858 -4.6435199 -86.895699
-93.736801 -4.2945299 -89.203697
-92.978798 -19.577499 -36.398602
-92.916801 -19.5725 -36.297901
-92.784798 -19.432501 -36.495899
-93.232803 -19.5965 -36.8027
-93.081802 -19.4146 -37.097198
-92.486801 -17.105499 -43.3946
-92.484802 -16.9165 -43.996101
-93.079803 -16.1355 -47.598598
-93.091797 -15.8665 -48.492298
-92.784798 -15.5155 -49.0956
-92.783798 -13.6315 -55.395699
-93.0858 -12.4505 -59.895699
-91.883797 -11.3026 -61.696701
-93.383797 -11.0165 -65.2967
-92.783798 -9.9385405 -67.996696
-93.383797 -9.7245502 -69.7967
-93.082802 -9.7435303 -69.196701
-92.784798 -8.3875399 -73.395699
-92.785797 -7.9455299 -74.895699
-93.0858 -7.91855 -75.494698
-93.081802 -7.74155 -76.097702
-92.787804 -6.1305199 -81.193703
-90.677803 -3.6835301 -86.299698
-93.388802 -4.7005301 -87.193703
-93.079803 -4.3845501 -87.798698
-93.083801 -4.1345501 -88.696701
-93.5028 -4.1495399 -89.330704
-93.3368 -4.0485201 -89.4207
-93.089798 -3.9695401 -89.292702
-92.706802 -19.554501 -35.961899
-93.039803 -19.581499 -36.494598
-92.487801 -18.7855 -37.993999
-92.479797 -18.313499 -39.498699
-93.383797 -18.4576 -40.696499
-93.081802 -18.190599 -40.997398
-92.185799 -17.0305 -43.0951
-92.784798 -16.439501 -46.095901
-92.486801 -16.0895 -46.694599
-92.482803 -15.7165 -47.8969
-93.080803 -14.4115 -53.297699
-92.778801 -13.9845 -54.1987
-92.788803 -12.6565 -58.693699
-92.479797 -11.9576 -60.498699
-92.7808 -11.7615 -61.697701
-93.088799 -11.3015 -63.793701
-93.084801 -11.1245 -64.395699
-92.787804 -11.0605 -64.093697
-92.177803 -9.0195303 -70.099701
-92.788803 -8.6465502 -72.493698
-92.491798 -8.0665302 -73.991699
-91.884804 -7.5005498 -74.895699
-92.782799 -7.2485399 -77.2967
-92.783798 -4.0785499 -88.396698
-93.2248 -3.9795201 -89.481697
-92.489799 -3.6925399 -89.292702
-92.189796 -18.991501 -36.793301
-91.273804 -16.1395 -44.301601
-92.483803 -16.4555 -45.496101
-92.1838 -15.8295 -46.996601
-92.485802 -14.0085 -53.5947
-92.187798 -13.6735 -54.194698
-92.484802 -13.3865 -55.695702
-91.881798 -12.6265 -57.197701
-92.175797 -12.4245 -58.4007
-92.185799 -12.1625 -59.2957
-91.5858 -10.5405 -63.7957
-92.7938 -10.6335 -65.590698
-92.485802 -9.5265503 -68.894699
-92.184799 -8.6805401 -71.2957
-91.889801 -6.1275301 -79.693703
-92.181801 -5.66153 -81.797699
-91.884804 -3.9965501 -87.195702
-92.483803 -3.85553 -88.696701
-91.576797 -3.2715499 -89.299698
-92.718803 -3.6675401 -89.756699
-92.357803 -19.5266 -35.402901
-92.219803 -19.5145 -35.180401
-92.180801 -19.4545 -35.298
-91.892799 -18.2565 -38.5919
-92.186798 -16.2005 -45.794701
-92.480797 -15.5335 -48.498001
-91.889801 -14.3165 -51.493301
-91.881798 -13.3335 -54.797699
-92.184799 -11.1035 -62.895699
-92.185799 -10.8415 -63.794701
-92.485802 -10.1315 -66.794701
-91.876801 -9.9965496 -66.200699
-92.476799 -9.8675203 -67.700699
-92.1828 -9.5455303 -68.2967
-92.185799 -7.12955 -76.695702
-92.1828 -6.3545198 -79.396698
-92.188797 -6.0135498 -80.593697
-91.5868 -5.4655499 -81.494698
-91.283798 -3.38153 -88.396698
-92.486801 -3.5255401 -89.883698
-92.247803 -3.38153 -90.012703
-91.576797 -19.1975 -35
-91.580803 -19.012501 -35.597698
-92.1838 -18.7045 -37.696201
-91.580803 -17.1485 -41.598
-91.8918 -16.1255 -45.492001
-91.588799 -15.7766 -46.093601
-91.5858 -15.5035 -46.994999
-90.989799 -14.2835 -49.993099
-91.883797 -14.0465 -52.3964
-91.589798 -12.1216 -58.3927
-91.881798 -11.5635 -60.797699
-91.5858 -9.5925303 -67.095703
-92.185799 -8.8485403 -70.695702
-91.582802 -8.2915297 -71.596703
-91.883797 -8.10355 -72.7967
-91.880798 -7.9325299 -73.397697
-91.581802 -7.6085501 -73.997704
-92.184799 -5.92554 -80.895699
-91.876801 -5.08255 -83.300697
-91.8908 -5.2635498 -82.691704
-91.360802 -2.8445401 -90.495697
-91.480797 -2.9175401 -90.429703
-91.285797 -2.81055 -90.495697
-92.090797 -3.2855201 -90.098701
-91.886803 -3.2495401 -89.894699
-91.311798 -2.8155501 -90.521698
-91.950798 -19.494499 -34.750999
-91.582802 -18.0795 -38.596699
-91.5858 -17.3395 -40.9953
-90.382797 -16.564501 -41.296902
-90.989799 -15.2675 -46.693199
-91.5868 -15.2305 -47.894699
-91.286797 -13.8195 -52.094898
-91.285797 -13.2885 -53.895699
-91.2808 -13.1075 -54.4977
-91.583801 -12.9135 -55.695702
-91.879799 -10.8615 -63.1987
-91.286797 -9.8745403 -65.594704
-91.297798 -9.1015301 -68.288696
-91.579803 -8.7175303 -70.098701
-91.878799 -7.2365398 -75.799698
-90.986801 -6.9725299 -75.194702
-90.985802 -6.2025499 -77.894699
-91.286797 -5.7495399 -79.994698
-91.590797 -5.29355 -82.091698
-91.582802 -4.7755399 -83.896698
-90.983803 -3.6575301 -86.896698
-90.983803 -19.4165 -33.201801
-90.576797 -19.383499 -32.549702
-90.378799 -19.252501 -32.5993
-90.687798 -18.032499 -37.0937
-90.9888 -17.650499 -38.893501
-91.288803 -16.615499 -42.793499
-90.983803 -15.7065 -45.196499
-90.984802 -14.9045 -47.895802
-90.689796 -12.7115 -54.792702
-91.286797 -12.4045 -56.894699
-91.588799 -11.9425 -58.993698
-90.987801 -11.2835 -60.193699
-91.278801 -10.5605 -63.1987
-91.284798 -6.5195298 -77.2957
-89.783798 -5.0255399 -79.996696
-90.691803 -4.78055 -82.391701
-90.990799 -4.2485399 -84.792702
-90.985802 -4.0805402 -85.394699
-91.281799 -3.7125199 -87.197701
-90.534798 -19.380501 -32.482498
-91.332802 -19.4445 -33.761002
-90.378799 -16.932501 -40.099098
-90.980797 -17.460501 -39.497799
-90.991798 -16.3545 -43.091702
-90.686798 -13.9445 -50.594601
-89.181801 -11.5765 -55.9977
-90.981796 -11.9805 -57.797699
-90.989799 -11.0255 -61.0937
-91.289803 -9.53055 -66.792702
-90.688797 -9.4865398 -65.8937
-91.289803 -9.4435396 -67.092697
-91.278801 -9.2655296 -67.6987
-90.6838 -8.87854 -67.996696
-90.386803 -8.2965403 -69.494698
-90.9888 -8.42453 -70.093697
-90.9888 -7.4865398 -73.3927
-90.687798 -4.9495201 -81.793701
-90.982803 -2.9985399 -89.297699
-90.687798 -2.4595301 -90.793701
-91.277802 -2.7955301 -90.540703
-90.699799 -2.44754 -90.854698
-90.480797 -19.3755 -32.396
-89.178802 -17.5345 -35.899399
-90.991798 -16.9105 -41.291801
-90.692802 -16.279499 -42.791698
-90.978798 -16.158501 -43.699402
-90.386803 -15.6485 -44.2948
-90.982803 -15.4406 -46.096901
-90.684799 -15.4525 -45.495998
-90.380798 -14.5786 -47.8979
-90.389801 -14.1415 -49.3932
-90.388802 -11.5885 -58.0937
-90.983803 -10.7625 -61.9967
-90.976799 -10.0625 -64.400703
-90.388802 -9.6845398 -64.692703
-90.384804 -9.5075397 -65.2957
-90.379799 -9.0705299 -66.798698
-89.787804 -8.7725496 -66.793701
-91.281799 -8.0525503 -71.897697
-90.091797 -7.4675298 -71.891701
-89.477798 -6.9985399 -72.499702
-90.686798 -6.56955 -76.094704
-90.078796 -5.4195299 -79.098701
-90.080803 -3.82254 -84.797699
-90.689796 -2.9465301 -88.992699
-91.137802 -19.428499 -33.449299
-90.386803 -19.0735 -33.194599
-91.219803 -19.435499 -33.5798
-91.194801 -19.4335 -33.540699
-90.0858 -18.616501 -34.095299
-90.384804 -18.602501 -34.6959
-90.386803 -17.491501 -38.2948
-90.6828 -16.9195 -40.696899
-90.0858 -15.9385 -42.7953
-90.080803 -14.8625 -46.398102
-90.381798 -14.4025 -48.497601
-89.776802 -13.2865 -51.2001
-90.084801 -12.9215 -52.995701
-90.379799 -11.9325 -56.898701
-90.987801 -11.6335 -58.993698
-90.084801 -10.9095 -59.895699
-90.083801 -9.8775301 -63.4967
-90.382797 -6.9325299 -74.2967
-90.374802 -7.1825299 -73.401703
-90.382797 -3.79654 -85.396698
-90.675797 -3.1825299 -88.1007
-90.381798 -2.48053 -90.197701
-90.688797 -2.44153 -90.860703
-90.6688 -2.4295299 -90.871696
-90.378799 -19.3675 -32.232899
-90.087799 -17.1395 -38.894001
-90.0868 -15.3955 -44.594501
-90.078796 -11.5155 -57.798698
-89.788803 -11.5425 -57.193699
-90.387802 -11.1505 -59.5947
-90.077797 -10.6476 -60.799702
-89.785797 -9.5555401 -64.095703
-90.083801 -8.4905396 -68.2967
-90.079803 -7.62955 -71.298698
-89.790802 -6.9865398 -73.092697
-89.776802 -6.1205401 -76.1007
-90.095802 -5.8545198 -77.589699
-89.785797 -5.9565401 -76.694702
-89.783798 -4.0995498 -83.2957
-90.076797 -3.5705299 -85.700699
-89.783798 -3.27054 -86.2967
-89.787804 -3.1085501 -86.8937
-90.381798 -2.88553 -88.696701
-89.778801 -2.52753 -88.999702
-90.089798 -17.321501 -38.2934
-89.786797 -16.137501 -41.594898
-89.483803 -15.2495 -43.996498
-90.083801 -14.5975 -47.296398
-89.484802 -14.4565 -46.6959
-89.782799 -14.0835 -48.497101
-90.082802 -13.8895 -49.697201
-89.776802 -12.4945 -53.8997
-89.783798 -11.7135 -56.596699
-89.785797 -9.9905396 -62.595699
-89.784798 -9.2085304 -65.2957
-89.7808 -8.9425402 -66.1987
-89.486801 -8.1065397 -68.594704
-89.7808 -7.8245201 -70.097702
-89.1838 -7.0245399 -71.896698
-89.188797 -6.3555298 -74.293701
-88.879799 -5.5135498 -76.6987
-89.789803 -2.6995201 -88.3927
-89.4888 -2.2365401 -89.593697
-89.785797 -2.2095301 -90.195702
-90.602798 -2.3905301 -90.9067
-89.486801 -18.8326 -32.294601
-89.190804 -18.477501 -32.8927
-89.497803 -16.7155 -39.188599
-89.479797 -15.8745 -41.898499
-89.483803 -15.6985 -42.496498
-89.483803 -14.9836 -44.896198
-89.479797 -14.7185 -45.798302
-89.185799 -12.6255 -52.395401
-88.883797 -12.0295 -53.896702
-89.185799 -11.7535 -55.395699
-88.580803 -11.0965 -56.597698
-89.177803 -10.3615 -60.199699
-88.8778 -10.1245 -60.499699
-89.1838 -10.1965 -60.7967
-89.483803 -10.0945 -61.696701
-89.176804 -9.0755301 -64.700699
-89.787804 -8.4275503 -67.994698
-88.582802 -7.7425199 -68.2967
-89.483803 -7.9325299 -69.196701
-89.486801 -5.30054 -78.494698
-88.884804 -4.8375201 -79.095703
-89.487801 -5.0455298 -79.3937
-88.580803 -3.8675201 -82.098701
-89.485802 -2.8085301 -87.494698
-89.180801 -1.85254 -90.497704
-89.7808 -1.8965501 -91.353699
-89.778801 -1.96454 -91.098701
-89.4748 -19.2945 -30.7845
-89.181801 -19.2715 -30.3165
-89.1828 -19.2155 -30.496799
-89.858803 -19.3265 -31.4002
-89.485802 -19.2945 -30.8018
-89.473801 -19.102501 -31.4016
-90.0588 -19.342501 -31.720699
-88.884804 -15.9985 -40.3955
-89.478798 -16.054501 -41.299099
-88.589798 -15.4765 -41.592701
-89.4888 -15.5226 -43.093498
-89.187798 -13.2435 -50.294102
-88.881798 -11.4215 -55.9977
-88.881798 -10.5585 -58.9977
-89.490799 -10.6955 -59.591702
-88.579803 -10.0585 -60.1987
-89.485802 -9.75354 -62.894699
-89.486801 -9.5805397 -63.494701
-89.177803 -8.4675303 -66.799698
-89.186798 -7.6175199 -69.794701
-88.878799 -5.8585501 -75.499702
-89.481796 -3.62854 -84.497704
-88.883797 -3.18854 -85.096703
-89.483803 -1.75055 -91.396698
-89.5308 -1.74655 -91.4897
-88.283798 -1.21155 -91.396698
-89.402802 -1.67053 -91.5597
-88.583801 -2.80655 -85.996696
-89.178802 -2.8315401 -86.899696
-88.882797 -18.5795 -31.9967
-88.8778 -16.8125 -37.699402
-88.584801 -16.1035 -39.4958
-89.179802 -16.255501 -40.098202
-88.881798 -15.3695 -42.497601
-88.880798 -15.1045 -43.3979
-88.888802 -14.5815 -45.193401
-89.1828 -12.2735 -53.596699
-88.5868 -11.7025 -54.494701
-88.885803 -11.0805 -57.194698
-89.1828 -10.8846 -58.396702
-88.278801 -9.7415504 -60.798698
-88.286797 -9.32654 -62.294701
-88.577797 -9.0385399 -63.799702
-88.581802 -8.4335299 -65.897697
-88.580803 -8.0855398 -67.097702
-88.8918 -7.3075299 -70.391701
-88.580803 -6.6465502 -72.1987
-87.687798 -5.7165198 -73.993698
-88.5858 -6.3165302 -73.395699
-89.1838 -5.8315401 -76.096703
-88.582802 -4.1195402 -81.196701
-88.884804 -2.53754 -87.495697
-88.575798 -1.81955 -89.6007
-88.977798 -1.41953 -91.789703
-88.883797 -1.40253 -91.696701
-88.590797 -2.64853 -86.591698
-88.283798 -18.0485 -32.596199
-88.281799 -17.7675 -33.497398
-88.288803 -17.585501 -34.093498
-88.283798 -15.7535 -40.0965
-88.290802 -14.3485 -44.8927
-88.282799 -13.9085 -46.396702
-88.584801 -13.5425 -48.195702
-87.686798 -12.8955 -48.794601
-87.983803 -12.8755 -49.396301
-88.889801 -13.6145 -48.493301
-88.589798 -12.8435 -50.593102
-88.576797 -13.0105 -50
-88.5858 -12.4885 -51.7953
-88.581802 -12.2215 -52.6978
-88.583801 -10.6665 -58.096699
-88.284798 -8.4595299 -65.2957
-87.6838 -6.2135301 -72.196701
-88.287804 -4.8045301 -78.193703
-88.5868 -4.28754 -80.594704
-88.580803 -3.6215501 -82.997704
-88.578796 -1.65854 -90.1987
-88.921799 -1.38455 -91.820702
-87.986801 -19.168501 -28.3957
-87.985802 -19.168501 -28.394899
-87.985802 -19.1675 -28.395399
-88.347801 -19.1975 -28.9748
-88.284798 -19.154499 -28.995899
-88.583801 -16.8286 -37.0965
-88.283798 -16.115499 -38.896198
-88.283798 -15.4855 -40.996201
-88.286797 -15.1365 -42.195
-87.378799 -12.9075 -48.199001
-87.978798 -12.3475 -51.1992
-88.286797 -12.2455 -52.094898
-87.983803 -11.6495 -53.596699
-88.2808 -11.7145 -53.897701
-87.386803 -11.0855 -54.494701
-88.2808 -10.6845 -57.4977
-87.688797 -9.95755 -58.993698
-88.282799 -8.8045301 -64.096703
-88.284798 -7.8515301 -67.395699
-87.987801 -7.2835398 -68.8937
-87.978798 -6.7785301 -70.6987
-88.286797 -5.66254 -75.194702
-88.281799 -5.83255 -74.597702
-88.285797 -5.2295198 -76.695702
-87.9758 -4.3245201 -79.400703
-87.987801 -2.4535501 -86.294701
-88.5858 -2.2355299 -88.095703
-87.986801 -1.96652 -88.094704
-86.785797 -1.18155 -88.994698
-87.985802 -19.168501 -28.393801
-88.494797 -19.2125 -29.211901
-87.978798 -18.793501 -29.5987
-87.681801 -18.168501 -31.097401
-87.977798 -16.123501 -38.299198
-87.980797 -15.7635 -39.498199
-87.680801 -15.3315 -40.3979
-87.686798 -15.1595 -40.994801
-87.384804 -14.0385 -44.295799
-87.984802 -13.6646 -46.6959
-88.284798 -12.6835 -50.596001
-87.984802 -12.7025 -49.995499
-88.281799 -11.0295 -56.297699
-87.381798 -10.5735 -56.297699
-87.3778 -10.0565 -58.099701
-87.9888 -9.9365196 -59.5937
-87.686798 -9.6135302 -60.194698
-87.983803 -8.7425203 -63.7967
-87.084801 -7.6965299 -65.895699
-87.385803 -7.0775499 -68.595703
-87.379799 -6.8215299 -69.498703
-88.278801 -6.3345299 -72.798698
-87.685799 -5.4595299 -74.894699
-87.6838 -5.1995201 -75.7967
-87.384804 -4.8025498 -76.695702
-87.384804 -4.1265302 -79.095703
-87.984802 -2.69455 -85.395699
-87.686798 -2.07355 -87.194702
-88.281799 -1.00955 -92.167702
-87.685799 -18.716499 -29.2953
-86.4888 -17.945499 -29.5935
-88.603798 -19.223499 -29.3894
-87.686798 -18.3535 -30.4949
-87.984802 -18.063499 -31.996
-87.679802 -17.702499 -32.598202
-87.380798 -16.980499 -34.398201
-87.685799 -16.692499 -35.895302
-87.3918 -15.9805 -37.691601
-86.781799 -16.005501 -36.4972
-87.681801 -14.8955 -41.897499
-87.084801 -13.6205 -45.195702
-87.082802 -13.2745 -46.396999
-86.7808 -12.5975 -48.198101
-87.685799 -12.7206 -49.3951
-87.090797 -11.7175 -51.792301
-87.687798 -11.5855 -53.294701
-87.081802 -11.1865 -53.597698
-87.990799 -9.3485403 -61.692699
-87.389801 -7.67554 -66.492699
-87.083801 -6.3455501 -70.696701
-87.383797 -6.1545401 -71.896698
-87.380798 -5.9005399 -72.797699
-86.481796 -4.7115502 -75.497704
-87.685799 -4.60254 -77.895699
-87.382797 -3.2335501 -82.396698
-87.381798 -2.90555 -83.597702
-87.977798 -1.38855 -90.200699
-87.984802 -1.23453 -90.7957
-87.983803 -19.168501 -28.391001
-87.384804 -19.123501 -27.434299
-87.389801 -18.9205 -28.092899
-87.082802 -18.369499 -29.2967
-87.383797 -17.813499 -31.696301
-87.384804 -17.2596 -33.495499
-87.080803 -15.6255 -38.2981
-87.078796 -14.7425 -41.299198
-86.784798 -14.2415 -42.495998
-87.387802 -13.3495 -46.694302
-87.081802 -12.3185 -49.697701
-87.687798 -10.8125 -55.994701
-87.381798 -10.7425 -55.697701
-87.088799 -9.3175402 -60.192699
-86.785797 -8.4155302 -62.894699
-87.081802 -8.4705496 -63.197701
-86.785797 -7.8075299 -64.994698
-87.6828 -7.5585299 -67.396698
-87.080803 -5.83954 -72.497704
-87.076797 -4.2305298 -78.200699
-87.384804 -3.96854 -79.695702
-87.687798 -3.6235399 -81.493698
-87.078796 -2.9295299 -82.999702
-87.386803 -2.50055 -85.094704
-87.680801 -2.39255 -85.997704
-86.783798 -1.73853 -86.896698
-87.076797 -1.4705499 -88.400703
-87.387802 -1.2085299 -89.894699
-87.388802 -1.05054 -90.493698
-87.408798 -0.499542 -92.641701
-87.494797 -0.54953003 -92.595703
-87.385803 -0.501526 -92.594704
-87.382797 -18.7265 -28.6971
-86.778801 -18.2915 -28.9988
-86.791801 -17.7535 -30.7922
-86.484802 -17.3955 -31.396
-86.786797 -17.1075 -32.8946
-86.785797 -17.3825 -31.9956
-86.485802 -16.4825 -34.395302
-87.384804 -16.3405 -36.495899
-87.395798 -15.3545 -39.7901
-86.481796 -13.7305 -43.697498
-87.082802 -13.7905 -44.596699
-87.388802 -12.2195 -50.5937
-87.084801 -11.8885 -51.195599
-86.4888 -11.1495 -52.693501
-87.0858 -8.8995399 -61.694698
-87.082802 -8.1245403 -64.396698
-86.187798 -6.8385301 -67.394699
-86.7808 -5.8635302 -71.898697
-86.476799 -5.2975502 -73.400703
-86.1838 -4.1545401 -76.995697
-87.382797 -3.8075299 -80.2967
-86.783798 -3.4525499 -80.596703
-87.387802 -3.6505401 -80.8937
-87.087799 -3.4305401 -81.194702
-87.0868 -2.60654 -84.194702
-87.084801 -2.03754 -86.2957
-86.786797 -1.57953 -87.494698
-85.889801 -0.31152299 -90.792702
-87.087799 -0.68252599 -91.3937
-87.275803 -19.115499 -27.2619
-87.047798 -19.098499 -26.8978
-86.781799 -18.946501 -26.897499
-86.480797 -18.682501 -27.197901
-85.886803 -16.422501 -33.494499
-86.481796 -15.0325 -39.197399
-86.473801 -13.3805 -44.902199
-86.481796 -11.9235 -49.997898
-86.478798 -10.7945 -53.898701
-86.176804 -10.5575 -54.199699
-86.486801 -10.4585 -55.0947
-86.784798 -10.1855 -56.595699
-86.489799 -9.9555397 -56.8937
-87.082802 -9.6515503 -58.9967
-86.782799 -9.7585402 -58.096699
-86.788803 -9.2515297 -59.8937
-86.791801 -8.6715403 -61.991699
-86.484802 -6.05655 -70.695702
-86.782799 -5.6135302 -72.7967
-86.4888 -4.4665198 -76.3937
-86.485802 -3.79355 -78.794701
-86.485802 -2.41153 -83.895699
-86.482803 -2.1665299 -84.7967
-86.782799 -2.2225299 -85.097702
-86.492798 -1.92953 -85.690697
-86.483803 -0.72854602 -90.196701
-86.7798 -0.391541 -91.998703
-87.0868 -0.37252799 -92.594704
-87.230797 -0.39755201 -92.738701
-86.894798 -19.0875 -26.653
-86.554802 -19.061501 -26.1105
-86.185799 -18.793501 -26.295
-86.187798 -17.5005 -30.4944
-85.882797 -15.9635 -34.9967
-86.484802 -15.3895 -37.995701
-85.583801 -12.4065 -46.696499
-86.481796 -12.4395 -48.197498
-85.880798 -12.0445 -48.498299
-86.778801 -9.8425303 -57.798698
-86.1838 -9.3765297 -58.396702
-86.1828 -9.0355196 -59.596699
-86.185799 -7.9465299 -63.495701
-86.187798 -7.4295301 -65.293701
-86.481796 -5.63553 -72.197701
-86.484802 -4.1275301 -77.595703
-86.479797 -3.62955 -79.398697
-86.188797 -3.1805401 -80.593697
-86.487801 -3.1575301 -81.193703
-86.484802 -2.5745201 -83.2957
-86.485802 -1.20355 -88.394699
-86.482803 -0.18753099 -92.2967
-86.598801 -0.037537001 -93.081703
-86.484802 0.027465999 -93.1437
-85.5868 -17.8955 -28.0945
-85.8918 -18.4415 -26.8918
-85.876801 -17.144501 -31.0998
-86.184799 -16.8615 -32.596001
-86.480797 -15.6575 -37.0979
-86.181801 -15.4925 -37.0975
-86.491798 -14.1705 -42.1922
-85.885803 -13.8456 -42.195099
-86.482803 -13.2165 -45.4967
-85.285797 -11.1445 -50.595299
-85.881798 -10.8435 -52.697701
-86.1828 -9.9705496 -56.2967
-85.883797 -10.1585 -55.096699
-85.582802 -9.50455 -56.896702
-85.577797 -9.1635399 -58.099701
-86.188797 -7.7725501 -64.093697
-86.186798 -5.4105201 -72.494698
-85.885803 -4.51053 -75.195702
-86.489799 -2.74155 -82.692703
-86.185799 -2.68454 -82.395699
-85.883797 -2.05655 -84.195702
-85.883797 -1.81354 -85.096703
-86.480797 -1.67853 -86.598701
-86.176804 -0.28253201 -91.400703
-85.5868 -0.026550001 -91.394699
-85.629799 -18.980499 -24.6231
-85.562798 -18.9755 -24.5156
-85.281799 -18.7255 -24.7974
-86.101799 -19.0235 -25.3832
-85.7528 -18.9925 -24.8216
-85.287804 -18.3685 -25.994301
-86.482803 -19.0555 -25.994499
-85.881798 -17.508499 -29.897499
-85.882797 -17.054501 -31.396799
-85.584801 -15.6165 -35.595402
-85.583801 -15.2585 -36.796398
-85.581802 -14.2885 -40.0975
-85.582802 -14.1165 -40.6968
-85.883797 -12.9885 -45.196098
-85.587799 -12.7495 -45.494301
-85.882797 -11.1045 -51.7967
-85.582802 -8.3195496 -61.096699
-84.382797 -7.1475501 -63.196701
-84.976799 -7.26755 -63.800701
-84.386803 -6.8115201 -64.394699
-85.582802 -7.1345501 -65.2967
-84.384804 -4.8055401 -71.595703
-86.177803 -5.0675402 -73.699699
-85.880798 -5.09653 -73.098701
-85.282799 -3.98154 -76.096703
-85.581802 -3.7105401 -77.597702
-85.883797 -3.6005199 -78.496696
-85.583801 -3.38153 -78.7967
-84.986801 -2.8675201 -79.694702
-85.592796 -2.74753 -81.190697
-86.179802 -2.8485401 -81.798698
-85.284798 -1.38754 -85.695702
-85.8778 -1.32654 -86.900703
-85.878799 -1.16653 -87.498703
-85.886803 -0.77752697 -88.994698
-85.884804 -0.0035399999 -91.995697
-85.590797 0.27145401 -92.592697
-85.728798 0.45346099 -93.553703
-85.468803 -18.967501 -24.3645
-85.372803 -18.959499 -24.2097
-84.987801 -17.6476 -27.794001
-84.987801 -17.2805 -28.994101
-85.577797 -16.7036 -31.999399
-85.5868 -14.8156 -38.294701
-85.582802 -14.6365 -38.8969
-85.589798 -14.4675 -39.493301
-85.5868 -13.9465 -41.294998
-84.995796 -12.1895 -46.390099
-85.582802 -11.0385 -51.497101
-85.583801 -8.5725403 -60.196701
-85.587799 -6.30054 -68.293701
-85.5868 -5.7975502 -70.094704
-85.287804 -4.8175402 -73.093697
-85.583801 -4.8715501 -73.396698
-85.277802 -4.4735398 -74.299698
-85.281799 -3.73755 -76.997704
-85.584801 -2.9835501 -80.2957
-85.277802 -1.86853 -83.899696
-85.589798 -0.80255097 -88.3927
-84.981796 -0.219543 -89.597702
-85.519798 0.57147199 -93.666702
-85.288803 0.55047601 -93.193703
-84.9888 -16.9195 -30.1936
-85.2808 -16.811501 -31.0979
-84.983803 -15.5565 -34.6964
-84.983803 -14.3205 -38.8964
-84.9888 -13.6305 -41.293499
-84.6828 -12.9576 -43.096901
-84.9758 -12.7685 -44.300701
-85.285797 -12.6776 -45.195202
-85.284798 -12.0826 -47.295601
-85.281799 -11.8235 -48.197399
-85.282799 -10.1165 -54.196701
-84.386803 -9.5905504 -54.494701
-85.284798 -7.92453 -61.995701
-85.584801 -6.9675298 -65.895699
-85.287804 -6.8235502 -65.8937
-84.986801 -6.2625399 -67.394699
-85.583801 -6.7155499 -66.7967
-84.383797 -5.7255201 -68.2957
-85.290802 -5.9935298 -68.891701
-85.281799 -4.30655 -74.897697
-84.9888 -3.0315199 -79.093697
-85.581802 -3.1405301 -79.697701
