# .PCD v0.7 - Point Cloud Data file format
VERSION 0.7
FIELDS x y z
SIZE 4 4 4
TYPE F F F
COUNT 1 1 1
WIDTH 1516
HEIGHT 1
VIEWPOINT 0 0 0 1 0 0 0
POINTS 1516
DATA ascii
-1.8960909 5.4981275 27.062361
-2.5726507 5.4371796 27.009153
-2.3461626 5.7157035 26.830904
-2.4865322 5.7036748 26.819386
-1.8956602 5.6130524 26.971182
-1.8951643 5.7453995 26.861584
-2.1206565 5.7323508 26.847569
-6.8846211 0.81576592 29.297085
-7.1198921 0.82759178 29.138964
-6.8634777 0.567541 29.502262
-7.1219845 0.60275698 29.300728
-6.9717937 0.91201508 29.172089
-6.629683 1.0201757 29.285387
-6.8867288 1.0419409 29.12641
-6.6303186 0.79670697 29.462305
-6.7164903 1.1191452 29.163136
-7.0862184 1.033666 29.015944
-6.4215827 1.071015 29.34985
-6.2604437 1.1155285 29.38916
-7.6122437 1.3455129 28.482494
-7.6867704 1.1943446 28.529179
-7.5416503 1.2718058 28.575483
-7.4616818 1.4154812 28.533422
-7.3392968 1.2863797 28.692644
-7.373086 1.5666958 28.482553
-7.2225614 1.6269405 28.529356
-7.0804582 1.9544288 28.364168
-7.1458883 2.0300236 28.269833
-7.8711195 1.3827723 28.27869
-8.1183529 1.413048 28.070845
-7.9369755 1.2315747 28.325237
-7.72054 1.4573286 28.334818
-7.7862859 1.5258374 28.241127
-7.6432347 1.6085832 28.284067
-7.5590644 1.7442428 28.238338
-7.4926996 1.6714627 28.334709
-7.9837403 1.4983362 28.115339
-7.7543344 1.7260475 28.120779
-7.8984628 1.6428199 28.080935
-8.049057 1.5643644 28.018776
-7.8175755 1.7941927 28.024658
-7.401299 1.8227477 28.280441
-7.6670251 1.8609946 28.08156
-7.9157839 1.8893896 27.876585
-7.4321342 2.3096066 27.861258
-7.6802721 2.1028128 27.872704
-7.5452514 2.0230608 28.030479
-7.421629 2.0704958 28.073601
-7.2711339 2.1228204 28.121702
-8.0663509 1.818073 27.812243
-7.8308039 2.0409164 27.813198
-7.6827741 2.3354478 27.656628
-7.9230127 2.1251476 27.664865
-7.9191866 2.3521161 27.444336
-8.0735598 2.0593798 27.597397
-7.5826406 2.2543938 27.805037
-7.5068846 2.3983581 27.723135
-7.8332939 2.2768614 27.592884
-7.6757636 2.5612669 27.432606
-7.5208941 2.5949142 27.51688
-7.4311366 2.540247 27.641182
-7.33567 2.7053039 27.53931
-7.3383622 3.1320546 27.107687
-7.2644739 3.043565 27.247192
-7.5409551 3.1719387 26.917383
-7.7341633 3.0955784 26.836472
-7.7379532 2.8685994 27.058762
-7.5413866 3.0565436 27.028299
-7.8090091 3.1794684 26.694267
-7.9710197 3.1101341 26.620167
-7.8954206 3.0277774 26.764769
-7.5405145 3.2897048 26.807438
-7.7355537 3.3273253 26.618896
-7.5400834 3.4049516 26.702745
-7.3387656 3.3646843 26.888468
-7.3434663 3.6002672 26.672728
-7.8262782 2.5039785 27.36561
-7.746172 2.6444108 27.285318
-7.5426297 2.7239811 27.366484
-8.0603237 2.5141349 27.145069
-7.3436775 2.9037752 27.331322
-7.542232 2.8304145 27.256268
-7.5418 2.9459748 27.138416
-7.8098416 2.9518661 26.9133
-7.272387 2.8159027 27.471678
-7.9733381 2.8814886 26.841089
-8.1378088 2.5860617 26.996443
-8.0459642 2.9628763 26.694548
-8.0697212 2.289763 27.372963
-8.2966604 2.2945445 27.145845
-8.1527719 2.1379292 27.448929
-8.1461067 2.3622324 27.22435
-8.3672152 2.367049 26.997234
-8.3739014 2.1426492 27.223465
-8.5177898 2.2941487 26.912468
-8.5904865 2.1422167 26.990913
-8.7961092 2.3600032 26.524065
-8.8020267 2.1354489 26.751072
-8.5835133 2.3659565 26.76384
-8.575963 2.5901487 26.535444
-8.431365 2.6665025 26.61359
-8.2803812 2.7428322 26.691736
-8.209095 2.6644633 26.843401
-8.1298246 2.8110845 26.768879
-8.203618 2.8902888 26.618864
-8.2042656 1.4984238 27.937412
-8.2784929 1.2939686 28.010887
-8.1657782 1.2912214 28.108253
-8.3537798 1.4324617 27.85605
-8.4023247 1.2971228 27.898205
-8.1395683 1.6666151 27.870872
-8.5150394 1.3001367 27.789654
-8.5790596 1.4400885 27.632299
-8.6252213 1.3032393 27.676971
-8.6607447 1.5147722 27.488562
-8.7379351 1.3065279 27.55689
-8.520772 1.5915388 27.576363
-8.3701363 1.6806952 27.653843
-8.2901793 1.5838498 27.801876
-8.3019667 1.8322496 27.591963
-8.1513824 1.9077485 27.66404
-7.7396498 3.5621552 26.403143
-8.0483217 3.1921155 26.475183
-7.4216585 3.6900134 26.537209
-7.5391941 3.6425011 26.490011
-7.8973284 3.4952154 26.331367
-8.0512352 3.4260576 26.259003
-7.4281864 3.9266341 26.322945
-7.6666608 3.7130768 26.3283
-7.6669512 3.9497514 26.116871
-7.4339867 4.1628661 26.108351
-7.9060712 3.9672952 25.902378
-7.1030064 4.0448904 26.447445
-7.3120823 4.0865169 26.264952
-8.1356163 3.7449772 25.898642
-8.5725679 0.74469239 28.056992
-8.5361509 0.43936953 28.237803
-8.3770838 0.61076021 28.307205
-8.3435402 0.73123103 28.278158
-8.7599897 0.43446365 28.007936
-8.7930288 0.28350225 28.039356
-8.572896 0.2883915 28.27051
-8.7943134 0.74512327 27.828125
-8.7547092 0.89621776 27.790081
-8.5281687 0.89578325 28.018339
-8.8216982 0.62321532 27.855219
-8.1069155 0.7077437 28.493259
-8.1551018 0.55666339 28.532072
-8.2944384 0.88231593 28.239006
-8.5575905 1.1784627 27.828453
-8.3774204 1.0146203 28.09182
-8.6039143 1.0272832 27.871134
-8.9814568 0.40023988 27.774399
-8.9804296 0.85637116 27.559477
-9.0104475 0.73145115 27.591587
-8.1437263 0.99160105 28.306808
-8.3274126 1.1657717 28.049734
-8.0876093 1.1427341 28.264523
-8.77981 1.1787882 27.599054
-8.8230257 1.0275698 27.642872
-8.9093819 1.0966693 27.502136
-8.7977562 1.4379944 27.400759
-8.8383961 1.3095937 27.444206
-8.847682 1.5256028 27.26972
-8.9613733 1.3331583 27.282862
-8.7424288 1.5895537 27.340715
-8.5917702 1.6847134 27.428244
-8.5275364 1.8363769 27.362413
-9.0094166 1.4243072 27.15856
-8.8055334 1.6783944 27.192493
-8.7447224 1.8301611 27.122879
-8.5244827 2.0679853 27.139482
-8.3769369 1.9160932 27.443621
-8.5940981 1.9161357 27.213974
-8.8056746 1.9089923 26.974419
-8.3033352 2.0678587 27.372021
-9.012826 1.8933145 26.725527
-9.0092659 2.1206257 26.501793
-8.995738 1.1657985 27.360159
-9.1343231 1.3339175 27.059378
-9.0543261 1.272857 27.212372
-9.0518665 1.5466135 26.995039
-9.0135889 1.6625558 26.945356
-9.4193449 1.599867 26.423647
-9.4641256 1.4481716 26.48773
-9.2655392 1.4853636 26.754185
-9.2577 1.2435222 26.960196
-9.2143192 1.3950738 26.902372
-9.1674976 1.5554112 26.829802
-9.2180395 1.6370761 26.688957
-9.2167301 1.8698015 26.469059
-8.8396816 2.4482071 26.382217
-8.9694824 2.256839 26.415396
-8.7265577 2.5118852 26.448221
-8.6501999 2.664856 26.380507
-8.5037441 2.7419796 26.461323
-8.9662457 2.4883537 26.193886
-9.0063286 2.3488622 26.279188
-8.7923765 2.5877163 26.29969
-8.8389816 2.6770525 26.163292
-8.7244377 2.7394571 26.230017
-8.4284935 2.8948231 26.392157
-8.353159 2.8176706 26.543179
-8.7269487 2.9727936 26.014019
-8.5024853 2.9737225 26.243984
-8.5056534 3.2074387 26.028046
-8.2774115 2.9694307 26.471466
-8.9587421 2.6972923 26.009056
-8.2021332 3.1215751 26.399994
-8.8703241 2.8944771 25.929575
-8.7301235 3.2077475 25.798952
-8.8720808 3.1307905 25.715649
-8.9470158 2.9678283 25.778738
-9.1388083 2.2644007 26.190453
-9.4756136 2.393985 25.629284
-9.5132694 2.2432227 25.707241
-9.4720325 2.1564133 25.843695
-9.34513 2.2440271 25.937023
-9.3478975 2.4800775 25.722267
-9.2144489 2.3316267 26.030354
-9.269083 2.1798272 26.100365
-9.1402769 2.4976301 25.971296
-9.216774 2.5661571 25.81525
-9.0526896 2.7003336 25.896372
-9.1716967 2.7170672 25.737459
-9.0497103 2.9088159 25.714376
-8.2790842 3.2020724 26.253614
-8.282424 3.4363983 26.037872
-8.130846 3.5087955 26.113237
-8.5095921 3.4431288 25.81324
-8.5814352 3.2875855 25.880316
-8.515152 3.6785755 25.599987
-8.3645592 3.7564082 25.676229
-8.1398764 3.9804358 25.683916
-8.3482342 0.281858 28.496212
-8.2123394 0.35011181 28.587666
-7.9191275 0.5287618 28.746168
-7.99793 0.35340512 28.776321
-8.785533 -0.19847964 28.242491
-8.8113041 -0.34937432 28.26996
-8.7486458 -0.51788032 28.412733
-8.8367882 -0.51486111 28.300049
-8.9633751 -0.4883751 28.124962
-8.7598524 -0.062173605 28.21756
-8.6327095 -0.085540257 28.370413
-9.0028763 -0.28165811 28.003489
-8.8551588 -0.059127275 28.104876
-8.9678717 -0.055418547 27.967163
-8.3799162 0.15455133 28.525677
-8.6009102 0.16082172 28.297676
-8.5363846 -0.025437793 28.44902
-8.713624 0.16417822 28.174744
-8.8151321 0.16724803 28.062059
-9.0080338 0.25950292 27.800852
-9.0424328 0.58042026 27.625751
-9.074852 0.40327898 27.661715
-9.1318884 0.64004916 27.485983
-9.1875648 0.40710601 27.519039
-7.5442519 0.57980859 29.009954
-7.7715049 0.58949137 28.829609
-7.5648332 0.38272992 29.120781
-7.7286725 0.36633223 28.998156
-7.8413877 0.36904725 28.902138
-7.5571465 0.82825702 28.844769
-7.7830734 0.83970779 28.672724
-7.2837753 0.54481435 29.226492
-7.0993981 0.35048866 29.503439
-7.346467 0.37951401 29.29579
-7.3452568 0.60823196 29.137363
-7.3192663 0.81035209 29.020359
-7.9496408 0.82880437 28.552429
-7.3331423 1.0538096 28.851088
-7.4994545 1.0005515 28.776348
-7.5641499 1.0666372 28.690248
-7.7672505 1.041362 28.564648
-7.9014726 0.95988017 28.516098
-9.3049288 0.63172603 27.26396
-9.2726479 0.41011369 27.406355
-9.2510471 0.54863858 27.380379
-9.4531326 0.48042375 27.11886
-9.64534 0.42520711 26.832258
-9.4748459 0.32948688 27.147451
-9.4264746 0.64387691 27.084349
-9.3874445 0.86463541 27.024471
-9.2699423 0.8662625 27.190432
-9.4998035 0.6468401 26.971664
-9.4769239 0.78782123 26.939121
-9.221344 0.6996969 27.345425
-9.0726614 0.85940588 27.446793
-9.1853743 0.86325681 27.303116
-9.2862377 1.0773927 27.035669
-9.2436314 0.98707241 27.157593
-9.616189 0.63326627 26.785501
-9.5217838 0.87011379 26.815947
-9.4458561 0.93907744 26.895651
-9.6945782 0.54825836 26.694664
-9.7106361 0.42813995 26.719572
-9.8831654 0.43655878 26.393738
-9.6714697 0.69937164 26.658451
-9.6484785 0.89863759 26.587532
-9.0358934 1.0145389 27.40522
-9.2051344 1.1384456 27.10803
-9.4148769 1.1148587 26.821785
-9.4930563 1.0509148 26.747976
-9.5479326 1.1204628 26.60778
-9.4574566 1.2023714 26.695375
-8.1683598 -0.30814776 28.982422
-8.2338047 -0.5314036 29.034666
-8.1454697 -0.60017055 29.176149
-8.3221388 -0.46274781 28.897848
-8.4231453 -0.53283262 28.81571
-8.2810736 -0.30478212 28.859106
-7.9972072 -0.09692391 29.035288
-8.1311264 -0.16989356 28.944067
-8.0635281 -0.31123012 29.095106
-8.2218761 -0.093948446 28.808754
-8.0862255 -0.018757923 28.90345
-8.3826752 -0.30171201 28.746422
-8.3520079 -0.16915986 28.71406
-8.495389 -0.29822582 28.618046
-8.5450668 -0.52469802 28.666464
-8.4441957 -0.097244613 28.579264
-8.5935555 -0.29516867 28.505363
-8.6359329 -0.52166855 28.55378
-8.0074873 0.16361642 28.874001
-8.1527596 0.14839306 28.747993
-8.3126268 -0.018109042 28.677879
-9.0870266 -0.27865401 27.890804
-9.0384283 -0.5467627 28.043514
-9.0568409 -0.052396186 27.854479
-9.4612465 -0.20042668 27.336535
-9.4141188 -0.4931365 27.480211
-9.2795753 -0.27157152 27.624214
-9.3014069 -0.49766526 27.652328
-9.2598839 -0.095271654 27.600031
-9.0330057 0.10862729 27.827391
-9.1997395 -0.27455932 27.736898
-9.2257338 -0.50063735 27.765013
-9.2403431 0.055537529 27.577141
-9.22264 0.18082108 27.557278
-8.9633369 -1.1923532 28.360977
-9.0349436 -1.1893966 28.248293
-9.0566196 -1.4155537 28.279039
-8.9890757 -1.4184951 28.391726
-9.1162491 -1.1859277 28.115656
-9.1547403 -1.4111603 28.110285
-9.0048943 -0.9235003 28.20997
-9.0713224 -0.98223847 28.128244
-9.2167892 -1.1816419 27.951801
-9.2989779 -1.404646 27.859867
-9.1959505 -0.95568186 27.929453
-9.2849636 -1.1786982 27.839115
-9.2684879 -0.95272166 27.816769
-9.3877468 -1.1741574 27.664915
-9.4226303 -1.3965697 27.640669
-9.3583326 -0.94889045 27.670284
-9.5161285 -0.94201064 27.406683
-8.9811964 -0.73703706 28.183245
-9.0598221 -0.73405385 28.07056
-9.2405529 -0.6431731 27.781982
-9.2551451 -0.79387659 27.799652
-9.4334145 -0.71907181 27.501274
-9.4749937 -0.35111073 27.353254
-9.4863701 -0.49017736 27.367525
-9.4442072 -0.038102698 27.316273
-9.6499929 -0.25636458 27.044991
-9.6669712 -0.48231891 27.066484
-9.5172215 -0.035140678 27.203587
-9.6891794 0.055538028 26.895672
-9.71525 -0.25343192 26.932304
-9.7308102 -0.4793916 26.953798
-9.4169445 0.18809026 27.283133
-9.3042316 0.18381554 27.444592
-9.4923668 0.19106141 27.170448
-9.673583 0.19882059 26.873672
-9.8883133 -0.24505074 26.608137
-9.8249922 -0.47488198 26.779543
-9.7497578 -0.02030503 26.807369
-9.9033651 -0.47102866 26.630314
-9.9193096 0.094083801 26.453907
-9.7370596 0.20174652 26.760986
-9.8386736 0.20667633 26.570282
-8.801795 -0.83779603 28.470388
-8.7779655 -0.68690139 28.443232
-9.5277205 -1.1678483 27.42243
-9.5259256 -1.3917279 27.45392
-9.6490822 -1.3881978 27.225328
-9.7037983 -1.2051878 27.109087
-9.7084255 -1.3852874 27.112644
-9.7534046 -0.93103302 26.983768
-9.6808939 -0.70816952 27.083139
-9.5026255 -0.71612418 27.388588
-9.5989017 -0.71185887 27.224915
-9.7432604 -0.70524776 26.970455
-9.8738089 -1.151112 26.775171
-9.9326077 -1.3736655 26.660616
-9.9151468 -0.69687355 26.646389
-9.8564138 0.65357012 26.33993
-9.7125969 0.83657509 26.511383
-9.8761396 0.89288932 26.169504
-9.6875095 0.98780459 26.469978
-9.9021187 0.72546208 26.214016
-9.660574 1.1114177 26.428057
-9.4934978 1.3337983 26.532675
-9.7232704 1.1143407 26.315371
-9.835803 1.0972475 26.118172
-9.6974535 1.2439535 26.270037
-9.7315226 1.331069 26.138508
-9.9278164 1.2698488 25.830675
-9.3394775 -2.0812247 27.868803
-9.3434582 -2.3065879 27.86343
-9.2680407 -2.0849707 28.014633
-9.2717514 -2.3105092 28.016569
-9.3274488 -1.8558919 27.874174
-9.1265154 -2.318152 28.314175
-9.0402889 -2.0964217 28.45892
-9.2012272 -1.8621814 28.118019
-9.0316257 -1.9337012 28.447245
-9.4896879 -2.0732353 27.55744
-9.436883 -2.3014014 27.660643
-9.4306889 -1.8506809 27.671925
-9.5553074 -2.0696652 27.418058
-9.4877472 -1.8477793 27.55924
-9.0744648 -1.6416433 28.306347
-9.0218287 -1.7830858 28.434032
-9.1969957 -1.6387985 28.086235
-9.3001194 -1.6339011 27.897129
-9.422781 -1.6251242 27.668554
-9.4828463 -1.6222112 27.555868
-8.5195656 -1.1900421 29.014893
-8.5458775 -1.4367076 29.085505
-8.3951082 -1.2144766 29.198988
-8.5475702 -0.98076409 28.878891
-8.7765169 -1.1999153 28.6486
-8.744832 -1.4142184 28.778044
-8.6213093 -1.4337364 28.97282
-8.6290798 -0.97776997 28.766207
-8.3894711 -0.75809377 28.972776
-8.5153437 -0.73194218 28.802208
-8.5970573 -0.79055732 28.725098
-8.7417927 -0.97356123 28.607513
-8.850625 -1.1969492 28.535915
-8.8127298 -1.4775589 28.69556
-8.8207293 -0.97057682 28.494829
-8.2990999 -0.76112139 29.085461
-8.6875105 -0.73865503 28.581047
-9.7072458 -2.0612791 27.09033
-9.656682 -1.8390142 27.218304
-9.7739143 -1.8327166 26.972687
-9.7112732 -1.6107639 27.111841
-9.8626614 -2.0523875 26.741943
-9.9303665 -1.7646533 26.643753
-9.9325361 -1.5990036 26.653545
-9.9302006 -1.1482129 26.662487
-9.9920225 -1.3703916 26.532686
-9.9267073 -0.98998052 26.6602
-7.8416605 -0.31758821 29.326647
-7.8845215 -0.44381568 29.365198
-7.769659 -0.10452175 29.259052
-7.5615792 0.14432471 29.281967
-7.7960782 0.16427338 29.065229
-7.5386147 -0.11605283 29.479597
-7.3232989 0.12291226 29.495781
-7.2179723 -0.44821277 30.051889
-7.2652793 -0.35542852 29.921305
-7.1423211 -0.29658413 29.985704
-7.4397655 -0.44611827 29.822598
-7.3890119 -0.33006456 29.778254
-7.0703993 -0.14171422 29.914677
-7.2228436 -0.21123201 29.837399
-7.3054385 -0.12903473 29.697699
-7.1490517 -0.059774287 29.778679
-7.5031509 -0.326947 29.665571
-7.4529305 -0.19832881 29.616716
-7.662426 -0.44394356 29.594297
-7.6158652 -0.32385513 29.55374
-7.7289462 -0.32074156 29.441057
-7.6821775 -0.18515879 29.395491
-7.0814428 0.10099201 29.70746
-7.237421 0.036182661 29.630627
-7.3880334 -0.046973415 29.563705
-7.164413 0.18755323 29.575689
-10.076486 -1.8154571 26.29657
-9.9900236 -1.5957775 26.527315
-8.9794664 -2.0993376 28.571604
-9.0488243 -2.322156 28.469831
-9.3282766 -2.7574022 27.852686
-9.2991419 -2.9986472 27.867748
-9.2188501 -3.0034931 28.058317
-9.2168055 -2.7638793 28.106752
-9.1166468 -2.9943242 28.298059
-9.1278744 -2.7689035 28.303431
-9.3394461 -2.5319815 27.858059
-9.4008589 -2.9771342 27.621943
-9.4799261 -2.6434901 27.518873
-9.2190857 -2.5387359 28.122335
-9.1311731 -2.5435126 28.308804
-9.4342661 -2.5265 27.643127
-6.649581 0.3902511 29.787497
-6.8471923 0.32158956 29.70875
-6.764863 0.23150338 29.842335
-6.650012 0.27515414 29.885906
-6.6490903 0.52118087 29.677866
-6.2441959 0.40795168 30.030432
-6.4385548 0.34831655 29.964916
-6.3611832 0.2563484 30.102114
-6.5159264 0.44016355 29.832802
-6.1681738 0.54623169 29.943052
-6.3654442 0.48898947 29.882021
-6.4460301 0.58415788 29.749237
-6.2426152 0.64048511 29.813927
-6.1696181 0.77918911 29.725981
-6.4396429 0.80119419 29.565014
-6.6486597 0.636204 29.582554
-6.2470746 0.87629032 29.600079
-6.4220133 0.95602119 29.44393
-6.1785369 1.0154704 29.51215
-9.3441143 1.7782025 26.372217
-9.7033005 1.4870574 26.062014
-9.6144285 1.5635706 26.144054
-9.4679394 1.6865902 26.275375
-9.470212 1.9218428 26.060101
-9.3443499 2.0109839 26.154451
-9.7428265 1.5692902 25.924465
-9.7083473 1.728135 25.851894
-9.6214075 1.8005321 25.929981
-9.8628721 1.5883361 25.702789
-9.9361639 1.5204855 25.627066
-9.7548437 1.806271 25.710377
-9.1405039 2.034452 26.411192
-9.5064812 2.0101867 25.923931
-9.6283159 2.0381002 25.715908
-9.9238472 0.57428861 26.252537
-9.9394875 0.43945765 26.281052
-10.105438 0.4484666 25.929415
-9.9165106 1.0097675 26.02603
-10.080856 0.65696079 25.884386
-10.00448 0.89955342 25.910275
-9.9677896 -2.0461767 26.498041
-10.053357 -2.0409229 26.291199
-10.124986 -2.0486507 26.104628
-10.138074 -1.8116536 26.146767
-10.225223 -2.0295296 25.840452
-10.159283 -2.1803596 25.964231
-10.090109 -1.5900272 26.301943
-10.147431 -1.3615592 26.186779
-10.145329 -1.5867615 26.173689
-10.281518 -1.3531815 25.856569
-10.271312 -1.5785985 25.851198
-10.146707 -1.136194 26.192587
-10.085713 -0.9139089 26.318058
-10.143149 -0.91068524 26.191923
-10.194064 -1.133329 26.079901
-10.283165 -1.127797 25.861942
-10.279268 -0.9024334 25.867313
-9.9706602 -0.69397771 26.533705
-10.070844 -0.68858689 26.323429
-9.9594908 -0.4681305 26.517628
-10.049769 -0.46328831 26.3288
-10.135641 -0.68498147 26.182446
-10.124882 -0.45912218 26.165928
-10.268101 -0.67709738 25.872684
-10.249609 -0.45178902 25.878056
-10.147372 -3.0008869 25.445805
-10.255689 -2.9148128 25.142838
-10.318573 -2.6891966 25.148212
-10.303406 -2.4692471 25.37896
-10.380569 -2.5725071 25.037245
-10.39626 -2.4235497 25.097643
-10.311588 -2.9092298 24.917463
-10.39812 -2.6338913 24.885445
-9.9452124 -0.24214968 26.495453
-10.022753 -0.23801222 26.334169
-9.9761257 0.0074537764 26.362011
-10.111288 -0.23314549 26.144033
-10.225861 -0.22650057 25.883425
-10.151935 -0.07656993 26.013235
-9.9082308 0.21015912 26.4352
-9.9624577 0.21305005 26.322514
-10.12738 0.22211221 25.968479
-2.5207286 2.0356739 29.441347
-2.1344192 2.06339 29.473536
-1.9089327 2.0749223 29.48801
-2.8089442 4.6771479 27.49295
-3.2540605 4.4512801 27.563652
-3.2645867 4.6752567 27.4118
-2.9207761 5.0149932 27.250633
-2.7996221 5.0300002 27.262341
-3.0241673 5.2695804 27.049831
-3.1617754 5.2514439 27.034678
-3.312151 5.2302685 27.016937
-2.798619 5.2973423 27.07296
-3.4757237 5.0916476 27.080246
-3.3781621 5.4612851 26.825867
-2.7929966 5.4635811 26.949093
-3.4200037 5.7257838 26.606081
-3.7003305 5.3151236 26.857786
-3.0227675 5.6429586 26.764973
-3.258884 5.6033001 26.743271
-2.7972214 5.6701541 26.788979
-3.998271 5.0072713 27.011183
-4.0465007 5.2560124 26.806126
-3.7008672 5.1719685 26.967127
-3.6940045 5.577136 26.650169
-8.993474 -5.220612 24.411423
-9.0061941 -5.2387118 24.636496
-9.1021519 -5.1256595 24.639187
-9.0930567 -5.1075459 24.414114
-9.2052813 -4.9764881 24.417233
-8.9742937 -5.1966419 24.186491
-9.0780687 -5.0835605 24.18918
-9.1903114 -4.9569454 24.192194
-8.9477921 -5.1663756 23.961708
-9.0559196 -5.0532775 23.964399
-8.9185209 -5.1342549 23.760616
-9.0410595 -5.0343223 23.839424
-9.2478333 -4.7874742 23.74522
-9.4121065 -4.7226977 24.423271
-9.2999182 -4.863441 24.419922
-9.5002737 -4.6096749 24.425961
-9.5932331 -4.4788527 24.429075
-9.4012766 -4.7090259 24.198093
-9.2890654 -4.8438826 24.194883
-9.494194 -4.5959849 24.200783
-9.5858612 -4.4735088 24.203697
-9.6919117 -4.3367529 24.432457
-9.7645874 -4.2237887 24.435146
-9.8766174 -4.0411072 24.439495
-9.6905775 -4.3312769 24.207083
-9.7668142 -4.2182994 24.209772
-9.8788738 -4.0434098 24.213936
-9.4780397 -4.5699902 23.924009
-9.2751474 -4.8230715 24.009741
-9.4886112 -4.5858645 24.073967
-9.4628038 -4.5488248 23.750898
-9.3505573 -4.6743965 23.747911
-9.5569973 -4.4357791 23.75359
-9.2616596 -4.8043356 23.85985
-9.6831732 -4.3176298 23.981905
-9.763278 -4.2046375 23.984594
-9.8753576 -4.0351009 23.98863
-9.6691904 -4.2963095 23.756908
-9.7537241 -4.1833005 23.759598
-9.4384518 -4.5175023 23.526142
-9.3261929 -4.6396737 23.523235
-9.5368176 -4.4044409 23.528831
-9.4089108 -4.4819207 23.301487
-9.2966442 -4.6020508 23.298628
-9.5113087 -4.368844 23.304176
-8.9906569 -4.9782729 23.515181
-9.1051693 -4.8651505 23.517872
-9.2174654 -4.7527742 23.520544
-9.181879 -4.7151742 23.295937
-9.6490202 -4.2672868 23.532097
-9.7372561 -4.1542635 23.534786
-9.7215223 -4.129425 23.37405
-9.90627 -3.8444841 23.316656
-9.7039232 -4.1031275 23.22434
-9.2740936 -4.5751948 23.147335
-9.4933825 -4.3449717 23.16666
-9.0178642 -4.768868 23.005701
-8.9487829 -4.9366937 23.290668
-9.0460281 -4.7975488 23.155354
-9.2487555 -4.5465293 22.997683
-8.9846439 -4.7366533 22.844425
-9.1087389 -4.6234946 22.847116
-9.2210541 -4.5161772 22.849669
-9.3305101 -4.4030738 22.85236
-9.6850309 -4.0756531 23.085651
-9.4701567 -4.3152647 23.017033
-9.4427691 -4.2807527 22.85527
-9.5389204 -4.1676993 22.85796
-9.6511078 -4.0267515 22.861315
-9.9348001 -3.8950715 23.655724
-9.7682438 -3.9626491 23.088343
-9.8803549 -3.8012903 23.092182
-9.7158747 -3.8826952 22.729033
-9.8553934 -3.7461698 22.880787
-8.7802343 -4.9857435 23.023182
-8.8360147 -4.7991486 22.678192
-9.0367575 -4.5488682 22.508486
-9.1745739 -4.4662929 22.625355
-9.2635174 -4.3247962 22.505888
-8.9233179 -4.605011 22.417814
-9.1366959 -4.4188995 22.432447
-8.9981756 -4.5130467 22.359005
-9.4151974 -4.2051835 22.614437
-9.5087481 -4.1274996 22.680033
-9.6015892 -3.9873121 22.629789
-9.3426933 -4.2174869 22.422274
-9.4815292 -4.0919509 22.530546
-9.4732027 -4.0811896 22.409016
-9.2366714 -4.2988296 22.356171
-8.9624043 -4.4796848 22.174038
-9.1011868 -4.3664708 22.176729
-8.9652529 -4.4857578 21.948389
-9.1472406 -4.3764348 21.948772
-9.4726753 -4.0776949 22.266003
-9.3877048 -4.1656241 22.185848
-9.6039362 -3.9857519 22.192682
-9.5138636 -4.1042838 22.115032
-9.3727989 -4.2512417 21.990519
-9.5927839 -4.183641 21.983734
-9.663929 -4.0427618 22.049982
-9.2135963 -4.2843876 22.17868
-9.2216625 -4.2900596 22.024519
-9.941452 -3.9090827 23.805725
-10.11815 -3.5964291 23.773569
-9.9951391 -3.7664163 23.544018
-10.10713 -3.5733032 23.548616
-10.17811 -3.4835129 23.776258
-10.169086 -3.4603796 23.551304
-9.9779387 -3.7315238 23.319345
-10.161379 -3.4428062 23.422199
-10.233965 -3.3280504 23.554455
-10.249915 -3.3333616 23.779833
-10.202181 -3.3350713 23.341272
-10.149043 -3.4167895 23.272484
-9.9545135 -3.6883204 23.094872
-10.040401 -3.5434179 23.098322
-9.9387455 -3.6605489 22.96652
-9.9844322 -3.5450575 22.885574
-10.192966 -3.2705631 23.104818
-10.158176 -3.1973202 22.762947
-10.13223 -3.3834822 23.102129
-10.105582 -3.335521 22.877769
-9.7754211 -3.7709634 22.650675
-9.8992844 -3.59114 22.646181
-9.9167986 -3.6231821 22.817076
-9.6944504 -3.8525438 22.579416
-9.5743008 -3.9681182 22.411707
-9.7879925 -3.7277527 22.417427
-9.9001999 -3.5919838 22.420658
-9.6939306 -3.8468103 22.270819
-9.8376284 -3.7680418 22.202229
-9.9180088 -3.618808 22.285656
-9.7571592 -3.8937254 22.119362
-9.828598 -3.9678545 22.032131
-9.9072466 -3.8382914 22.066536
-8.7625113 -4.7317972 22.393541
-8.557456 -4.964828 22.536112
-8.7995777 -4.7651906 22.528666
-8.6888142 -4.692389 22.169016
-8.6078053 -4.7863989 22.241972
-8.8500338 -4.5723591 22.171833
-8.5622568 -4.7495432 22.092516
-8.3142691 -4.9568377 22.123177
-8.5192804 -4.7309155 21.942564
-8.4068041 -4.7954116 21.941032
-8.6979389 -4.6381183 21.944769
-8.8527975 -4.5558238 21.946724
-8.2426186 -4.9135633 21.93655
-8.5644617 -5.4574914 23.680861
-8.592205 -5.4868956 23.830496
-8.793108 -5.234199 23.681807
-8.528553 -5.4210577 23.504648
-8.7614031 -5.2007895 23.509888
-8.5793638 -5.2352781 23.187754
-8.382453 -5.4900913 23.350607
-8.6932135 -5.167973 23.272779
-7.9462571 -5.9564362 23.540777
-8.0994968 -5.899735 23.718763
-8.1787653 -5.7376804 23.497116
-8.2275953 -5.786561 23.721455
-8.3629665 -5.709003 23.838213
-7.9076319 -5.9214258 23.391275
-8.1478138 -5.7074547 23.366959
-8.2462692 -5.5800085 23.284061
-8.1069555 -5.6699371 23.217518
-8.8177729 -5.261683 23.831488
-8.8783493 -5.0876579 23.512577
-8.3916874 -5.2612009 22.889238
-8.4347572 -5.303226 23.05645
-8.1533833 -5.4762449 22.91238
-7.9579864 -5.4937892 22.640978
-7.9120588 -5.6892977 22.935757
-8.5471077 -5.2053552 23.058779
-8.7030792 -5.0775743 23.082426
-8.8134003 -5.0168533 23.172775
-8.4696636 -5.164741 22.823517
-8.6253614 -5.0408845 22.837191
-8.108058 -5.4362712 22.762999
-7.9103274 -5.4526052 22.491625
-8.2010193 -5.2812839 22.605974
-8.0322895 -5.3022852 22.38093
-8.2392902 -5.1447659 22.384676
-8.3510475 -5.2238936 22.739792
-8.3057756 -5.1713161 22.550842
-8.3623228 -4.9968019 22.272558
-8.0633402 -5.1661639 22.157715
-7.9128575 -5.218854 22.041246
-9.9705534 -3.4781814 22.64887
-9.9871588 -3.4789655 22.423347
-10.334409 -3.5982099 22.071684
-10.264891 -3.7291903 22.044483
-10.184296 -3.6461837 22.087868
-10.264107 -3.5226521 22.131542
-10.437058 -3.4482131 22.102266
-10.506384 -3.5201321 22.06431
-10.094772 -3.2853737 22.672794
-10.108127 -3.3041482 22.441793
-10.189355 -3.2285774 22.377947
-10.055286 -3.5344696 22.243731
-10.046981 -3.6858411 22.125406
-10.047403 -3.7968843 22.053751
-10.267246 -3.298995 22.250858
-10.505549 -3.3002391 22.134682
-10.58709 -3.3785367 22.081562
-10.651852 -3.2284832 22.103754
-10.725095 -3.2978647 22.069944
-10.135757 -3.3771119 22.293793
-8.5506992 -5.6847048 24.400381
-8.5672112 -5.7060118 24.625378
-8.7901888 -5.4768305 24.630831
-8.7752895 -5.4563661 24.405813
-8.8939466 -5.363749 24.63352
-8.881217 -5.3432765 24.408504
-8.4146881 -5.7652531 24.172964
-8.6412821 -5.5439129 24.178228
-8.8620262 -5.3164859 24.18364
-8.3183632 -5.9065552 24.395105
-8.3367071 -5.9282575 24.62009
-8.1800385 -5.9796209 24.167864
-8.3885078 -5.7362151 23.9879
-8.611392 -5.5087328 23.953564
-8.7236862 -5.3961096 23.956244
-8.2596092 -5.8320322 23.922894
-8.129118 -5.927855 23.857887
-7.9568911 -5.7293277 23.085136
-7.6650562 -5.8998876 22.964188
-7.5809813 -6.2153931 23.494352
-7.4810257 -6.39885 23.788185
-7.7018809 -6.1663818 23.576412
-7.7347913 -6.1938877 23.711769
-7.4397278 -6.3695393 23.63855
-7.3597264 -6.4429641 23.709522
-7.1267762 -6.4889188 23.479259
-7.1242948 -6.5684719 23.69314
-7.2429132 -6.3814216 23.363472
-7.3923001 -6.3365159 23.48288
-7.037632 -6.3869672 23.112217
-7.5086198 -6.1819 23.302849
-7.8471856 -6.1074963 23.713821
-7.9871335 -5.9942775 23.716515
-7.6587195 -6.1317763 23.426901
-7.5805635 -6.1019177 23.242933
-7.7594738 -5.9785724 23.26589
-7.4607935 -6.1459045 23.153374
-7.1179228 -6.304739 23.036459
-7.2570543 -6.154583 22.898098
-7.0488625 -6.1589899 22.653168
-7.7139077 -5.9399924 23.113565
-7.4624023 -5.9113264 22.704273
-7.7131324 -5.7040706 22.671047
-7.6604624 -5.6613345 22.521732
-7.5808959 -5.6270275 22.356022
-7.4536676 -5.6700706 22.269011
-7.7592068 -5.5057364 22.375141
-7.8716125 -5.4224043 22.377121
-7.2552505 -5.9185758 22.455482
-7.5776877 -5.5164204 22.152323
-7.7096972 -5.4650092 22.230667
-7.7065706 -5.226943 21.79229
-7.4038253 -5.6345658 22.146582
-7.7885022 -5.2576971 21.951111
-7.0436139 -5.9219298 22.216043
-7.1937242 -5.8742223 22.306206
-7.2913938 -5.7111578 22.14476
-7.2426023 -5.6748242 22.025599
-7.1099863 -5.7087994 21.937504
-6.9761333 -5.8761625 22.066801
-7.4444447 -5.4291215 21.833185
-7.1989851 -6.1146049 22.748716
-8.1102686 -4.9685674 21.858963
-8.8276148 -4.9625854 21.367239
-8.9111872 -4.8780813 21.452526
-8.9781151 -5.0170097 21.394243
-8.6839323 -5.1000681 21.228907
-8.8456993 -5.3935676 21.123077
-8.9962025 -5.4488921 21.154327
-8.598588 -5.1850572 21.137087
-8.6990633 -4.9288082 21.34515
-8.4735308 -4.9041729 21.302122
-8.4740028 -5.0279689 21.186419
-8.4744263 -5.1388206 21.106712
-8.2554865 -4.9179363 21.245638
-8.3357697 -4.9804912 21.158331
-8.2449856 -5.0779381 21.037951
-8.1853876 -4.9570103 21.12785
-8.4563923 -4.729517 21.698061
-8.3703947 -4.7627587 21.75975
-8.6980371 -4.6617222 21.718702
-8.9256001 -4.6046753 21.732519
-9.0019636 -4.5154238 21.818121
-8.6982679 -4.7207747 21.551332
-8.9237051 -4.7198081 21.571653
-8.4728937 -4.7389021 21.571667
-8.6986408 -4.8182287 21.436258
-8.4731112 -4.7951264 21.457575
-8.2698317 -4.8156972 21.696014
-8.0301428 -4.9464154 21.695187
-8.359479 -4.7541094 21.602905
-8.0226421 -4.9050684 21.487427
-8.2698479 -4.8181443 21.511524
-8.022665 -4.9085965 21.261839
-8.0228119 -4.9456816 21.098045
-9.5990238 -4.4560933 21.802591
-9.5986004 -4.3447642 21.862261
-9.8240891 -4.3571172 21.858669
-9.8245134 -4.4688048 21.814047
-9.3735723 -4.4533658 21.793825
-9.3731499 -4.3425636 21.875589
-9.5997229 -4.6398654 21.72419
-9.8251629 -4.6397023 21.753147
-9.8260126 -4.8633146 21.673813
-9.6865587 -4.9885807 21.603611
-9.3742819 -4.6399817 21.693256
-9.3748646 -4.7930303 21.619423
-9.375288 -4.9045982 21.569777
-9.5361176 -4.9497161 21.588879
-9.148243 -4.4831576 21.799952
-9.1643744 -4.6509919 21.669432
-9.2502546 -4.7574658 21.606371
-9.1651096 -4.8439345 21.542469
-9.0998631 -4.7316747 21.588928
-9.8234653 -4.1929398 21.931187
-8.5872612 -5.7416806 25.301041
-8.3635283 -5.9742017 25.521013
-8.5865355 -5.7462134 25.526438
-8.8041449 -5.5066099 25.306633
-8.8011522 -5.5083098 25.532099
-8.5842838 -5.7333689 25.075735
-8.8033934 -5.5007324 25.08127
-8.9018278 -5.387671 25.08396
-8.3622503 -5.967658 25.295666
-8.3572664 -5.9576654 25.070398
-9.0120363 -5.2588935 25.312529
-9.0065737 -5.2557602 25.538109
-9.0140553 -5.2570853 25.087067
-8.5779018 -5.7217593 24.850508
-8.7991009 -5.4911761 24.855993
-8.9003592 -5.3781037 24.858683
-8.3491449 -5.9447989 24.845201
-9.012598 -5.2506943 24.861715
-8.0759945 -6.1211429 24.390001
-8.0961418 -6.1430697 24.614983
-8.2060261 -6.0079618 24.392693
-7.9347911 -6.1862545 24.162951
-8.0228767 -6.0487981 23.951487
-8.1562519 -5.9549003 24.007578
-9.0996351 -5.1458731 25.315218
-9.0911026 -5.1427512 25.540798
-9.1045513 -5.1440535 25.089756
-9.1057549 -5.1376524 24.864405
-7.6899219 -6.3990335 24.270958
-7.577775 -6.5324368 24.605726
-7.7083435 -6.4155931 24.420898
-7.727037 -6.4333715 24.60808
-7.9636273 -6.2147727 24.387775
-7.8394418 -6.3497434 24.610067
-7.9837742 -6.2365084 24.612761
-7.8023047 -6.285861 24.160583
-7.1277132 -6.7472572 24.37512
-7.018311 -6.8643341 24.701904
-7.3285346 -6.6833305 24.60214
-7.298152 -6.6605277 24.37718
-7.4106317 -6.5967197 24.378696
-7.4583364 -6.6327381 24.750832
-7.1486268 -6.683742 24.131731
-7.267683 -6.6393828 24.195021
-7.3465753 -6.5791202 24.134216
-7.5576534 -6.4561124 24.156536
-7.2376313 -6.6197381 24.045153
-7.6260095 -6.3481207 23.933601
-7.5135708 -6.4228382 23.931826
-7.9166331 -6.168973 24.045103
-7.3523121 -6.5189142 23.929544
-7.2065029 -6.6010098 23.927593
-7.8873396 -6.1427045 23.895393
-7.0002074 -6.6047831 23.610624
-6.9159818 -6.668942 23.690754
-7.0475316 -6.630899 23.760338
-6.6277952 -6.7127585 23.452885
-6.6599245 -6.7855902 23.712582
-6.7954035 -6.6091185 23.35536
-6.304781 -6.8220916 23.399639
-6.5172768 -6.8221235 23.646461
-6.4436188 -6.7151465 23.248964
-6.0874362 -6.8203926 23.162012
-6.5835223 -6.6097627 23.115477
-6.7336926 -6.5780125 23.205767
-6.9022403 -6.4227347 23.033657
-6.9778786 -6.3513093 22.962734
-6.6140389 -6.3884282 22.636578
-6.2554412 -6.7170062 23.057816
-6.4439216 -6.5401764 22.807556
-6.3645229 -6.6072502 22.885132
-6.9551334 -6.8287015 24.373188
-6.9908457 -6.8484268 24.551949
-6.8916311 -6.8070402 24.146343
-6.9022837 -6.7452683 23.92417
-7.0939937 -6.6569157 23.926266
-6.7265897 -6.8203654 23.922388
-6.771616 -6.8415551 24.069117
-6.5736179 -6.8465109 23.796213
-6.2267141 -6.9426713 23.693991
-6.367084 -6.848073 23.549355
-6.7641983 -6.3536339 22.720438
-6.8369513 -6.1608644 22.415085
-6.687367 -6.2065101 22.346697
-6.2904229 -6.5743246 22.735582
-6.3932528 -6.3840098 22.412752
-6.5434237 -6.3521218 22.48711
-6.1644783 -6.3771033 22.195431
-6.3146548 -6.3466802 22.263308
-6.987083 -6.1187415 22.503792
-6.7705188 -6.1199555 22.265726
-6.6203723 -6.1583319 22.18866
-6.0776353 -6.3378973 22.046032
-6.39329 -6.1511631 21.97225
-6.6869144 -6.0842638 22.12351
-6.5434465 -6.1153293 22.039352
-6.8260112 -5.9209046 21.986708
-6.900053 -5.8293171 21.914814
-6.4604721 -6.0746832 21.903593
-7.4935308 -5.2297907 21.555984
-7.2265782 -5.4295745 21.5972
-7.856667 -5.1756811 21.891941
-7.8044462 -5.1010718 21.700228
-7.9601798 -5.0217452 21.757389
-7.6436348 -5.1804175 21.643064
-7.5700331 -5.1317725 21.482706
-7.902329 -4.9773011 21.608114
-7.7452617 -5.0181828 21.484743
-7.8577652 -4.9609108 21.486103
-7.4229326 -5.180007 21.406837
-7.5723844 -5.0192556 21.271555
-7.6979604 -4.98172 21.355835
-7.7827182 -4.9426522 21.273373
-7.6474304 -4.9592476 21.206038
-7.6474257 -4.9568586 21.105801
-7.6288447 -4.9703369 21.084402
-7.5742893 -4.9847918 21.03187
-7.3474579 -5.1366587 21.256721
-7.2728195 -5.2272177 21.329927
-7.1932545 -5.1743021 21.180857
-6.9992533 -5.424356 21.372337
-7.3474717 -5.0214071 21.033213
-7.119462 -5.129097 21.035496
-6.8837318 -5.7068477 21.707399
-6.651855 -5.6948748 21.484039
-6.7493548 -5.8726487 21.837524
-7.0764532 -5.4736595 21.521494
-6.5624943 -5.6586094 21.354799
-6.5992184 -5.9137468 21.767572
-6.8121943 -5.3513141 21.108492
-6.6010733 -5.454196 21.087788
-7.0431318 -5.2190166 21.111444
-6.9554238 -5.165628 20.962383
-6.8052864 -5.2065115 20.897928
-6.114862 -5.8861217 21.346024
-6.3483644 -5.9138494 21.563438
-6.323987 -5.6415114 21.146717
-6.3052821 -6.105298 21.823011
-6.1551218 -6.1401033 21.761387
-6.0581837 -6.0917459 21.612207
-5.90802 -6.1257544 21.554575
-7.497788 -6.6705198 25.278952
-7.50806 -6.6831746 25.504154
-7.6204839 -6.6045709 25.506023
-7.625526 -6.5823555 25.28096
-7.7601647 -6.5007553 25.508446
-7.7667933 -6.4801569 25.283478
-7.8852744 -6.4036884 25.510799
-7.8791895 -6.3942552 25.285519
-8.0081234 -6.287571 25.288006
-8.1316118 -6.1940737 25.515783
-7.5967469 -6.5805168 25.055588
-7.472898 -6.6451211 24.900871
-7.7576871 -6.4672189 25.058281
-7.8700876 -6.3824625 25.060297
-8.1215086 -6.1746769 25.065237
-7.3531618 -6.7595749 25.276836
-7.3532352 -6.7817078 25.501814
-7.1970692 -6.851696 25.274647
-7.2149196 -6.8664393 25.4998
-7.3530755 -6.7340937 25.051939
-7.2003884 -6.8207574 25.049494
-8.1283722 -6.1859374 25.290474
-7.7443504 -6.4515476 24.833151
-7.8567533 -6.3675122 24.835148
-7.9984636 -6.2542872 24.837841
-7.1474228 -6.8172579 24.824461
-8.1108303 -6.1605401 24.840071
-6.4389048 -7.0408435 24.374475
-6.1080327 -7.2132683 24.58614
-6.2277069 -7.2183981 24.814941
-6.6775842 -6.9468303 24.370384
-6.6777515 -6.9937615 24.59477
-6.8426008 -6.8785138 24.372005
-6.8094316 -6.8605094 24.219
-6.4522843 -6.9819031 24.144054
-6.6140366 -6.8647299 23.921335
-6.4520783 -6.9247556 23.919912
-8.6588173 -5.6226501 26.205894
-8.7710161 -5.4846187 26.209179
-8.8565788 -5.3716059 26.211868
-8.5746756 -5.7437687 25.977507
-8.7844162 -5.497355 25.98337
-8.8721161 -5.3843336 25.986059
-8.3474808 -5.9733458 26.19755
-8.3562555 -5.9774694 25.971947
-9.0485296 -5.1024494 26.168537
-8.9842577 -5.2312918 25.989702
-8.5822449 -5.74686 25.751926
-8.7943478 -5.5052819 25.757675
-8.8850183 -5.3922496 25.760365
-8.3613605 -5.9773793 25.746443
-8.9971886 -5.246665 25.76383
-6.0004392 -6.711822 22.797483
-6.1402388 -6.6027222 22.661245
-6.0585589 -6.5682921 22.511734
-5.9083705 -6.5956321 22.443542
-5.9274554 -6.3676081 21.983595
-7.6326385 -6.6259589 26.182028
-7.6310019 -6.6209903 25.95664
-7.520381 -6.7176037 26.405352
-7.6327696 -6.6297045 26.407442
-7.7682962 -6.5165029 26.410133
-7.7731028 -6.5127382 26.184719
-7.8854651 -6.4178524 26.186975
-7.8806448 -6.4179826 26.412477
-8.0011263 -6.3048372 26.415169
-8.0099115 -6.3046927 26.189667
-7.7763305 -6.5077515 25.959333
-7.8887038 -6.4159126 25.961517
-8.0163336 -6.3027406 25.964209
-7.3599944 -6.8238959 26.177322
-7.3670835 -6.8308725 26.40266
-7.2429929 -6.8952322 26.036345
-7.5185905 -6.7027593 25.954697
-8.1222391 -6.2007031 26.192141
-8.1134386 -6.196867 26.417736
-8.1286726 -6.2017121 25.966612
-7.6272864 -6.6139159 25.731304
-7.5148673 -6.69381 25.729406
-7.7763925 -6.5006628 25.733997
-7.8887753 -6.4112625 25.736124
-8.0194349 -6.298079 25.738815
-7.3532944 -6.7999601 25.726883
-7.2367425 -6.8877978 25.886185
-8.1317835 -6.1994033 25.741161
-9.0627241 -5.1183057 25.992392
-9.0786591 -5.1336675 25.76652
-5.8553123 -7.1958065 24.132734
-5.7008343 -7.3259273 24.415115
-5.878674 -7.2776942 24.493977
-5.7766647 -7.1659627 23.914192
-5.8081837 -7.4412374 25.056139
-5.6693001 -7.5730462 25.354416
-5.8384056 -7.5138159 25.414799
-5.7071414 -7.6090569 25.567122
-5.9565907 -7.4225268 25.240164
-6.0031409 -7.4579782 25.485756
-6.1500263 -7.3454323 25.262926
-6.1966629 -7.3721266 25.487793
-6.2625661 -7.297543 25.264063
-6.3091927 -7.3215508 25.488993
-6.2303143 -7.2670484 25.048628
-5.7416248 -7.4102931 24.814526
-5.9358387 -7.3493094 24.888018
-5.8640742 -6.8165345 22.932354
-9.9432096 -3.9281659 24.442184
-10.009893 -3.8011413 24.44521
-10.113696 -3.5944414 24.45013
-10.167984 -3.4815469 24.45282
-9.948081 -3.9304585 24.216625
-10.022037 -3.7957237 24.219833
-10.121056 -3.607079 24.224325
-10.177076 -3.4941778 24.227013
-10.224738 -3.3495717 24.455961
-10.24486 -3.3441241 24.230587
-9.9466934 -3.9221418 23.991318
-10.022305 -3.7903512 23.994455
-10.122712 -3.6075723 23.998808
-10.180486 -3.4946647 24.001497
-10.253353 -3.3387203 24.005211
-7.797368 -4.9448943 21.081516
-6.1954274 -5.4826112 20.82836
-5.7280979 -5.8781457 21.067612
-5.9404731 -5.5804629 20.791166
-5.7448277 -5.5117378 20.56329
-5.9982858 -5.3925676 20.563023
-6.3136287 -5.1770182 20.480661
-6.2309895 -5.1302853 20.352163
-6.0609627 -5.1597576 20.274666
-5.9891438 -5.1006556 20.140013
-6.2176237 -4.9972291 20.118122
-6.561832 -5.1921811 20.688616
-6.4457836 -5.2218966 20.643036
-6.8865728 -5.1191401 20.817247
-7.1213374 -5.0138874 20.807983
-6.7119923 -5.1573787 20.748766
-6.6503115 -5.1064067 20.601561
-6.8967271 -5.0055699 20.581778
-7.1193633 -4.9796653 20.583403
-7.1962562 -4.9479489 20.661198
-7.1775398 -4.9615216 20.642885
-7.1962595 -4.9496865 20.734089
-7.0592089 -4.9591494 20.524574
-6.9722381 -4.9466043 20.507156
-7.0422244 -4.9463396 20.507158
-6.445509 -5.1480465 20.532043
-7.0422211 -4.9446993 20.438347
-7.119154 -5.0244832 20.359604
-6.6640549 -4.9907365 20.357637
-6.8948765 -4.9749827 20.360138
-6.9722352 -4.9449639 20.438343
-6.9542241 -4.9570866 20.421349
-6.8939977 -5.0175595 20.131552
-7.1019197 -5.1390948 20.149378
-6.8345156 -4.9546876 20.301687
-6.7348132 -4.9415002 20.283451
-6.8172765 -4.9411883 20.283455
-6.8172731 -4.9394002 20.208441
-6.7348099 -4.9397125 20.208437
-6.7108145 -4.9524736 20.189159
-6.6671972 -4.9651914 20.139894
-6.4451509 -5.0512648 20.356489
-6.4448638 -4.9734654 20.182087
-7.9657125 -5.3629246 20.651802
-8.0340128 -5.2935166 20.749058
-8.1162539 -5.4287105 20.698965
-7.7908411 -5.3012209 20.58251
-7.8758984 -5.2143826 20.712866
-8.023119 -5.0255294 20.983391
-7.7975454 -4.9904799 20.967678
-7.7993846 -5.1023278 20.796915
-8.0235405 -5.1355934 20.870647
-7.574666 -5.0139117 20.808947
-7.5009313 -4.9542904 20.95933
-7.5218263 -4.9681916 20.977406
-7.5009279 -4.9525418 20.885986
-7.7254043 -5.1610475 20.665419
-7.5584311 -5.1289802 20.586651
-7.6245251 -5.2394843 20.513218
-7.9385047 -5.6074958 20.438313
-8.0890446 -5.6728988 20.487024
-8.003624 -5.7598228 20.355103
-7.7887115 -5.5259142 20.393801
-7.5437646 -5.3195806 20.374681
-7.8001871 -5.6807494 20.272272
-7.8006091 -5.7911735 20.174603
-7.9182034 -5.8466992 20.221174
-7.6315017 -5.514883 20.278507
-7.6865873 -5.6269746 20.23053
-7.6065974 -5.7028131 20.086634
-7.5187778 -5.5129747 20.180544
-7.422833 -4.9545856 20.959328
-7.346981 -4.9834433 20.809267
-7.4228296 -4.9528375 20.885983
-7.4046731 -4.9660125 20.867382
-7.346509 -5.0220509 20.583614
-7.2894883 -4.9637041 20.75223
-7.2708883 -4.9494042 20.734093
-7.2708845 -4.9476666 20.661201
-7.3275242 -5.3097248 20.190218
-7.3888597 -5.2512078 20.302773
-7.473969 -5.1697364 20.455048
-7.3268695 -5.1387506 20.370121
-7.2382746 -5.1736784 20.237391
-9.0425348 -5.8614154 20.899998
-8.7883568 -5.658464 20.919176
-8.6378412 -5.5997124 20.880501
-8.7520494 -5.9064522 20.709976
-8.5435019 -5.4510255 20.934765
-8.392971 -5.3882599 20.894978
-8.3558407 -5.6409807 20.685377
-8.6015415 -5.8498135 20.668699
-8.304738 -5.2394981 20.947081
-8.1542015 -5.1751323 20.906958
-8.1794376 -5.8214011 20.424389
-5.9940186 -4.9811311 19.969189
-6.1410565 -4.9539409 20.011452
-6.2173433 -4.9209561 19.925678
-6.2913237 -4.9469495 20.034708
-5.9938121 -4.9254055 19.857765
-5.8568802 -4.9380007 19.81209
-6.1440754 -4.9119444 19.232304
-6.2253246 -4.8980503 19.459957
-6.3048038 -4.9574356 19.384584
-6.2677937 -5.0346537 19.213276
-1.2334383 1.8519745 29.727135
-1.4592158 1.7620018 29.845688
-1.2338005 1.75491 29.837574
-1.4584184 1.975603 29.607594
-1.6838624 1.9751689 29.606796
-1.6846654 1.7601334 29.842951
-1.233006 1.9677712 29.599365
-2.3623819 1.3890144 30.16704
-2.5879076 1.3673559 30.135393
-2.5882416 1.2777709 30.24601
-2.3627112 1.3006871 30.277687
-2.361949 1.5050848 30.027788
-2.5874748 1.4833106 30.000996
-2.3615894 1.6014344 29.917332
-2.5871108 1.580863 29.89057
-2.1360755 1.6200982 29.942719
-2.3611572 1.7171739 29.79196
-2.6793909 1.7938447 29.648918
-2.135643 1.7359239 29.81373
-1.9101435 1.7508161 29.831482
-2.3607676 1.8214581 29.681692
-2.1352589 1.8387386 29.703428
-2.6710696 2.023613 29.428217
-1.9093339 1.9675612 29.598204
-2.588675 1.1614207 30.397001
-2.9124525 1.3338414 30.089163
-3.264492 1.300221 30.04681
-3.2652755 1.0902637 30.289852
-3.4894383 1.3879181 29.910652
-3.4898832 1.276589 30.029774
-2.862222 1.5547917 29.858166
-3.2633286 1.5162367 29.817474
-3.488775 1.610908 29.685896
-3.0381594 1.538066 29.838573
-3.2630005 1.627973 29.70509
-2.8280199 1.2678001 30.191759
-3.2628376 1.7428955 29.593426
-3.7142777 1.59516 29.667839
-3.0373235 1.7617151 29.613384
-3.2623985 1.8603141 29.483471
-3.0368888 1.877895 29.503403
-3.0364573 1.9931798 29.397116
-8.2232971 -6.0837622 26.420427
-8.2351913 -6.0875869 26.194832
-5.5819077 -7.7593746 25.9296
-5.4782381 -7.8759999 26.172028
-5.9745917 -7.6201015 26.158407
-6.0870986 -7.5633736 26.159754
-6.2286773 -7.4908104 26.161476
-5.7685976 -7.6734061 25.948458
-6.0414634 -7.5374298 25.93487
-6.2285194 -7.4465265 25.937027
-5.7288132 -7.6451187 25.753363
-5.9865422 -7.5168219 25.719339
-6.2469649 -7.3919077 25.701565
-5.8696661 -7.5463905 25.614702
-6.4531202 -7.2160888 25.265997
-6.4532628 -7.2565084 25.490538
-6.6350389 -7.1353374 25.267912
-6.6784205 -7.1839557 25.717762
-6.7475619 -7.0829945 25.269156
-6.7910209 -7.1109114 25.606066
-6.9032121 -7.0065746 25.270969
-7.1024375 -6.9295549 25.498301
-7.0845804 -6.9131613 25.273188
-7.0349221 -6.8755045 24.823078
-7.0622487 -6.895112 25.048115
-6.4376192 -7.1366396 24.823204
-6.6605663 -7.0465417 24.828632
-7.6312466 -6.6362257 27.083801
-7.5189166 -6.7396064 27.081343
-7.5183058 -6.7467079 27.306677
-7.6306162 -6.6381817 27.309259
-7.748157 -6.5230942 27.086493
-7.7422981 -6.5250697 27.311951
-7.8604436 -6.4083557 27.089222
-7.8545632 -6.404573 27.314817
-7.9670711 -6.2952628 27.091913
-7.956388 -6.2914987 27.317507
-7.6321793 -6.6346154 26.858335
-7.5198288 -6.732532 26.856007
-7.7551479 -6.521461 26.861027
-7.8674579 -6.4127502 26.863611
-7.9790154 -6.2996387 26.866302
-7.3881164 -6.8527904 27.07865
-7.3938909 -6.859868 27.303986
-7.3820515 -6.8457422 26.853313
-8.0793257 -6.1719193 27.094847
-8.068615 -6.1608715 27.320616
-8.0912924 -6.1823297 26.869093
-7.6326227 -6.6326494 26.632877
-7.5202508 -6.7249651 26.630682
-7.7622914 -6.5194697 26.635569
-7.8746219 -6.4162874 26.638023
-7.9907498 -6.3031588 26.640715
-7.3746357 -6.8382049 26.627989
-8.1030455 -6.1907234 26.643389
-7.1285062 -6.9780979 26.173656
-7.2546701 -6.9122901 26.400724
-8.3126125 -5.4738846 28.902689
-8.2296591 -5.7129631 28.684311
-8.3252115 -5.5192795 28.688923
-8.3774767 -5.4063926 28.691612
-8.3513823 -5.3528309 28.972195
-8.4404554 -5.2614088 28.695065
-8.1688576 -5.8710303 28.455042
-8.2611294 -5.7074728 28.458937
-8.3431215 -5.5549927 28.462566
-8.3992281 -5.442091 28.465256
-8.4868746 -5.2558618 28.46969
-8.1415195 -6.0305095 27.68152
-8.0593119 -6.1499658 27.546381
-8.1633959 -6.0478234 27.323305
-8.1790981 -6.0588527 27.097538
-7.6313238 -6.6464181 27.985577
-7.5190725 -6.7705245 27.982624
-7.7293015 -6.5333581 27.988266
-7.8414993 -6.3950434 27.991558
-7.9309311 -6.2820158 27.994247
-7.6306787 -6.6432033 27.760149
-7.5184069 -6.7619562 27.757322
-7.7329688 -6.530127 27.762838
-7.8451915 -6.3983083 27.765976
-7.9387245 -6.2852654 27.768665
-7.4111118 -6.8836222 27.979933
-7.4049592 -6.8750749 27.754633
-8.0278854 -6.1483688 27.997429
-7.6305051 -6.6405506 27.534706
-7.5182137 -6.7541332 27.532005
-7.7373643 -6.5274572 27.537397
-7.8496089 -6.4014597 27.540396
-7.9471145 -6.2884016 27.543085
-7.3995047 -6.8672714 27.529314
-7.2757506 -6.9467707 27.076416
-7.2815423 -6.958303 27.301645
-7.26967 -6.9355063 26.851179
-7.262238 -6.9237142 26.625956
-5.0711832 0.46066254 30.562386
-5.0714974 0.37640521 30.67313
-4.8238416 0.48016235 30.639591
-5.285326 0.50472593 30.418133
-5.3533883 0.41361195 30.49577
-5.077734 0.58915699 30.402193
-4.8451815 0.60973126 30.463022
-5.2959867 0.63314533 30.264198
-4.8448429 0.70057529 30.352434
-5.0643167 0.77736503 30.189846
-4.8444104 0.81651431 30.218695
-4.619628 0.63869786 30.503078
-4.6200008 0.53849918 30.637508
-4.4102554 0.59693295 30.629101
-4.6192913 0.72898978 30.392479
-4.4097071 0.74409527 30.437401
-4.6188583 0.84503382 30.254332
-4.3933177 0.87062043 30.287582
-5.9728923 0.48195815 30.111206
-5.9732943 0.3744514 30.221395
-5.7223425 0.54527932 30.173489
-5.8065524 0.41592842 30.268045
-5.9724607 0.5974353 29.996845
-5.788558 0.64056206 30.042952
-5.7264023 0.74322963 29.96847
-5.9720378 0.71045339 29.886787
-5.9716063 0.82580328 29.777765
-5.7459745 0.87536335 29.828844
-5.5212035 0.69459569 30.105276
-5.5215855 0.59227574 30.21559
-5.2956109 0.7337414 30.153843
-5.5396132 0.82706743 29.961721
-5.2951789 0.84944582 30.029947
-5.6270943 0.89944559 29.854467
-5.9711637 0.94414204 29.667833
-6.0966301 0.91534477 29.637974
-5.7455378 0.99211395 29.718874
-5.2947774 0.95685112 29.919754
-5.476696 0.92648798 29.884851
-5.5520787 1.0286243 29.758671
-5.2943454 1.0723327 29.805204
-5.9707322 1.0593499 29.56477
-5.6274614 1.130698 29.635113
-4.8440423 0.91504383 30.108292
-5.0687723 1.1065097 29.842386
-4.8633862 1.0486771 29.963076
-4.6184916 0.94332725 30.143923
-4.3929501 0.96914107 30.177177
-4.6180592 1.0590333 30.01996
-4.3925176 1.0849192 30.050186
-4.0311866 1.3425425 29.86327
-4.1661577 1.3299061 29.848974
-3.9414632 1.1291679 30.104399
-3.9532266 1.4655987 29.756409
-3.7151268 1.3680297 29.89348
-4.1879425 1.4416853 29.735804
-3.7159488 1.1479596 30.128971
-4.0196223 1.5716501 29.64189
-4.1599774 1.694401 29.506039
-3.7133985 1.8301048 29.450558
-4.16787 1.0010962 30.197756
-3.9418271 1.0317147 30.214828
-3.7163081 1.0517212 30.239429
-3.4907928 1.0707431 30.263611
-2.9815335 1.118261 30.329809
-8.751523 -2.0986853 28.982325
-8.6061087 -1.8894446 29.167414
-8.7045107 -1.8851066 29.001028
-8.8584051 -2.0937011 28.790174
-8.8196144 -2.3335578 28.911837
-8.8962488 -2.3297663 28.764917
-8.8512049 -1.8786107 28.751774
-8.642065 -1.6524626 29.023211
-8.7621384 -1.6554116 28.834436
-8.9299707 -1.6481322 28.555656
-8.8338919 -3.0103846 28.927011
-8.7111645 -3.0173447 29.199547
-8.7795172 -2.7878377 29.042547
-8.7024698 -2.7919991 29.204918
-8.9148779 -3.0058308 28.748802
-8.833559 -2.7849474 28.929861
-8.9175053 -2.7804425 28.754175
-8.7720499 -2.5622463 29.037792
-8.6850052 -2.5666869 29.210289
-8.8290377 -2.559345 28.925106
-8.911643 -2.5550864 28.759546
-8.9978857 -3.0011427 28.565283
