# .PCD v0.7 - Point Cloud Data file format
VERSION 0.7
FIELDS x y z
SIZE 4 4 4
TYPE F F F
COUNT 1 1 1
WIDTH 1508
HEIGHT 1
VIEWPOINT 0 0 0 1 0 0 0
POINTS 1508
DATA ascii
-19.431555 -7.1297312 10.835173
-20.114719 -8.9104528 10.116186
-20.046791 -8.8460827 9.9032555
-20.064476 -8.7979546 10.11887
-19.977772 -8.6087122 10.123384
-20.088306 -8.9653111 9.8326015
-19.89897 -8.4376154 10.127465
-21.91766 -13.91662 9.8675909
-21.917154 -13.679148 9.6417694
-21.936699 -13.831259 9.7192879
-21.853184 -13.554566 9.7799177
-21.894762 -13.553912 9.5635223
-21.941908 -13.592366 9.3280029
-21.861126 -13.313044 9.1091595
-21.770554 -13.082636 8.8891497
-21.771 -13.088006 9.1145267
-21.707556 -12.935903 8.8926497
-21.708876 -12.936575 9.1181383
-21.703062 -12.9418 8.6670046
-21.788931 -13.329432 9.7852859
-21.719246 -13.096566 9.7775087
-21.824291 -13.323926 9.5599108
-21.747398 -13.098839 9.565279
-21.65905 -12.85405 9.5711174
-21.655495 -12.898108 9.7822418
-21.904564 -13.479818 9.3306866
-21.847904 -13.318465 9.3345356
-21.763926 -13.093405 9.3399029
-21.662188 -12.832995 9.3461142
-21.457273 -12.338529 9.808918
-21.570255 -12.654124 9.8013906
-21.488762 -12.476552 10.031132
-21.451601 -12.364003 10.033815
-21.39823 -12.20939 10.037503
-21.501844 -12.440791 9.5809736
-21.581892 -12.648708 9.5760145
-21.458485 -12.328266 9.5836573
-21.321125 -11.978931 9.8174944
-21.317066 -11.984319 10.042871
-21.502237 -12.440348 9.3554792
-21.585474 -12.643323 9.3506384
-21.400814 -12.193265 9.3613729
-21.366255 -12.451004 10.708261
-21.307106 -12.4566 10.933634
-21.309217 -12.225842 10.713629
-21.22864 -12.171725 11.007726
-21.424488 -12.466949 10.460541
-21.350136 -12.220316 10.488255
-21.259056 -12.038901 10.718086
-21.208809 -12.012401 10.939504
-21.186069 -11.775552 10.724366
-21.149445 -11.781062 10.949741
-21.273916 -11.974875 10.511933
-21.212473 -11.779843 10.516584
-21.440937 -12.411307 10.258193
-21.379679 -12.214832 10.262878
-21.30475 -11.989738 10.268247
-21.212582 -11.723774 10.27459
-21.118172 -11.55043 10.729735
-21.087543 -11.555918 10.955111
-21.040943 -11.307478 10.738233
-21.032955 -11.366499 10.959627
-21.137587 -11.544985 10.504359
-21.060822 -11.319897 10.509727
-20.97628 -11.077243 10.515514
-20.978912 -11.117515 10.742763
-21.147093 -11.539577 10.278983
-21.065779 -11.314507 10.28435
-20.955254 -11.105661 10.965848
-20.975821 -11.068711 10.290213
-20.196098 -10.711494 13.230324
-20.215332 -10.9368 13.224953
-20.132599 -10.940929 13.385072
-20.124025 -10.715278 13.37762
-20.173153 -10.486203 13.235694
-20.107197 -10.355438 13.356646
-20.139742 -11.166506 13.389161
-19.961777 -10.723125 13.681067
-19.969814 -10.948472 13.675695
-19.925426 -10.27967 13.71085
-19.880873 -10.36173 13.805196
-20.098026 -10.204747 13.340355
-20.331755 -10.585747 12.896584
-20.35429 -10.92936 12.934881
-19.924702 -10.046723 13.680131
-19.869802 -10.049617 13.792817
-20.020702 -10.041395 13.471807
-20.086882 -10.037477 13.317921
-20.238699 -10.255205 13.015692
-20.20402 -10.029958 13.021062
-20.559923 -11.724464 12.640362
-20.565783 -11.874944 12.647258
-20.505192 -11.816951 12.756906
-20.542545 -11.371925 12.610347
-20.554266 -11.597892 12.631519
-20.473101 -11.375837 12.763468
-20.721306 -11.814912 12.301983
-20.778069 -11.811482 12.167107
-20.630579 -11.13912 12.318093
-20.663795 -11.364373 12.312723
-20.708941 -11.133452 12.09272
-20.79229 -11.427804 11.992526
-20.778841 -11.27667 11.956938
-19.762142 -9.6023598 13.933292
-19.736546 -9.3770781 13.938663
-19.8834 -9.4302254 13.617109
-19.960381 -9.5908661 13.482548
-20.104342 -9.683012 13.147686
-20.166128 -9.8047228 13.026432
-20.134819 -9.5988445 13.011389
-19.871758 -9.2793703 13.593561
-20.090773 -9.5318565 13.111206
-20.113861 -9.401433 12.963977
-20.093788 -8.7960424 12.45019
-20.114 -8.9488478 12.556918
-20.030361 -8.6676016 12.60253
-20.069344 -8.6736498 12.377516
-20.159731 -8.8817472 12.146411
-20.077776 -8.6118803 12.152846
-20.179672 -8.8762999 11.921035
-20.121054 -8.6927824 11.925412
-19.965733 -8.4424677 12.607899
-19.997952 -8.4369745 12.382524
-20.020693 -8.4315166 12.157148
-20.034235 -8.4260941 11.931772
-20.19087 -8.8708858 11.695659
-20.125732 -8.6763077 11.700299
-20.087229 -8.5589495 11.477593
-20.124361 -8.6761303 11.249294
-20.118685 -8.6883478 11.023499
-19.960299 -8.1956234 11.711763
-19.9548 -8.1902733 11.486386
-20.076113 -8.57582 11.026182
-20.026264 -8.4100094 11.255641
-19.942057 -8.1849499 11.261009
-20.010426 -8.4046974 11.030264
-19.87748 -8.0508671 11.086738
-20.11046 -8.706193 10.797569
-20.103453 -8.7214174 10.642966
-20.066153 -8.5936718 10.800253
-20.059629 -8.6344585 10.571434
-20.131342 -8.8731184 10.34258
-19.988626 -8.3994083 10.804886
-19.907228 -8.1972313 10.809709
-19.959787 -8.394146 10.579508
-19.891987 -8.232686 10.58336
-20.084396 -8.7606077 10.345263
-20.020706 -8.6139221 10.348763
-19.879461 -8.2601433 10.430147
-19.864351 -8.290617 10.279084
-21.00622 -12.194 11.708879
-21.079866 -12.473575 11.609754
-21.016672 -12.344845 11.731827
-21.164507 -12.467883 11.384381
-21.127645 -12.242644 11.389751
-20.867188 -12.259745 12.065869
-21.086555 -12.017422 11.395121
-21.032576 -12.021659 11.56436
-21.004229 -11.721589 11.48654
-21.019064 -11.872952 11.531892
-21.257912 -12.460801 11.102093
-21.244339 -12.323386 11.065732
-20.898418 -11.803498 11.851237
-20.931635 -12.02875 11.845867
-21.151619 -12.011804 11.169747
-21.100651 -11.786618 11.175117
-20.932707 -11.572618 11.631233
-20.861645 -11.578259 11.856607
-20.886539 -11.347415 11.636603
-21.023745 -11.62134 11.338592
-20.943457 -11.341828 11.411229
-21.006817 -11.469509 11.273251
-20.987503 -11.337967 11.195057
-20.797058 -11.126122 11.799161
-20.887136 -11.116663 11.416598
-20.926651 -11.111141 11.191223
-20.652828 -12.271299 12.516613
-20.749319 -12.26631 12.322598
-20.821684 -12.714831 12.229593
-20.664959 -12.496632 12.511242
-20.794506 -12.085263 12.197519
-20.786095 -11.93463 12.183777
-19.170719 -6.1208615 12.663267
-19.16745 -6.1364832 12.8884
-19.169369 -6.1171436 12.437851
-19.107689 -5.9665537 12.666947
-19.102476 -5.9719448 12.892324
-19.103636 -5.9611974 12.44157
-19.012547 -5.7415352 12.672315
-19.010618 -5.7469144 12.897692
-18.913879 -5.5169716 12.903176
-18.960443 -5.6244364 12.549861
-18.956043 -5.6306152 12.399378
-19.163824 -6.1234312 12.212196
-19.090771 -5.9558744 12.216193
-19.153538 -6.1388717 11.986324
-19.06851 -5.9505868 11.990816
-19.000526 -5.754858 12.220988
-18.883093 -5.5059037 12.226927
-18.988726 -5.7773743 11.994947
-18.934925 -5.6648884 11.997631
-19.119045 -6.2133756 13.563084
-19.081091 -6.2188911 13.788459
-19.039272 -5.9882994 13.568451
-18.998411 -5.9789953 13.801028
-19.067471 -5.982821 13.343076
-19.193422 -6.3026471 13.266964
-19.160063 -6.1642222 13.113244
-18.938448 -5.7106605 13.575073
-18.928698 -5.7781138 13.80582
-18.992559 -5.784977 13.347795
-19.088779 -5.9773684 13.117701
-18.994234 -5.7349854 13.108139
-18.960421 -5.6357236 13.025109
-19.146133 -6.1830144 11.750992
-18.971811 -5.8090568 11.768688
-19.103001 -6.1650915 11.534692
-18.961464 -5.8282456 11.651189
-18.915956 -5.696579 11.771372
-18.896004 -5.7369928 11.564881
-19.149895 -6.3489447 11.304804
-18.911724 -5.5116382 12.677799
-18.747097 -5.1468363 12.686501
-18.751049 -5.1421504 12.912117
-18.798008 -5.2862191 12.457672
-18.68469 -5.0477791 12.46336
-18.604221 -4.841567 12.693783
-18.53503 -4.670095 12.923378
-18.528015 -4.6813688 12.697604
-18.582142 -4.8362789 12.468405
-18.733231 -5.1695876 12.342808
-18.676533 -5.0781026 12.256746
-18.76523 -5.3238845 12.005766
-18.537405 -4.8765464 12.016438
-18.547638 -4.8206277 12.256736
-18.448826 -4.6259112 12.26138
-18.814268 -5.4954205 11.776171
-18.482199 -4.5576057 12.926061
-18.386576 -4.391634 12.704516
-18.304619 -4.2242174 12.70851
-18.315094 -4.2056708 12.934457
-18.460054 -4.5888166 12.474309
-18.35812 -4.3863702 12.479138
-18.233017 -4.1380749 12.485062
-18.319786 -4.3726912 12.269895
-18.165903 -3.9417126 12.715249
-18.191868 -3.946986 12.940627
-18.025984 -3.6546021 12.722098
-18.094358 -3.7405968 12.945551
-18.787893 -5.3131156 13.584555
-18.874249 -5.538167 13.579187
-18.846085 -5.5436454 13.804563
-18.761953 -5.3096581 13.790257
-18.679462 -5.0509605 13.633587
-18.733162 -5.2020459 13.704398
-18.805685 -5.3076763 13.359179
-18.895252 -5.5327158 13.353811
-18.699614 -5.0489755 13.36535
-18.606743 -4.8630443 13.59529
-18.588364 -4.8684855 13.820665
-18.48513 -4.5725884 13.602218
-18.478445 -4.5967097 13.827148
-18.618349 -4.8576288 13.369914
-18.537369 -4.6710343 13.374365
-18.816332 -5.3022647 13.133802
-18.750717 -5.146708 13.137513
-18.62187 -4.8522439 13.144537
-18.486914 -4.5540266 13.15165
-18.416861 -4.4130063 13.606025
-18.405228 -4.4184217 13.831401
-18.273911 -4.0838542 13.613875
-18.318157 -4.2090321 13.836395
-18.420746 -4.40762 13.380648
-18.27318 -4.0797863 13.388468
-18.321404 -4.1953249 13.160208
-18.217201 -3.9683769 13.842135
-18.0623 -3.5976105 13.625474
-18.118624 -3.7326283 13.396749
-18.209152 -3.9522924 13.166005
-18.095949 -3.7062094 13.159254
-19.184473 -7.0458989 14.312285
-19.202492 -7.1974101 14.364389
-19.298058 -7.1249547 13.992358
-19.186287 -6.8022261 14.099313
-19.206139 -6.9540339 14.164138
-19.050737 -6.6858773 14.453844
-18.951653 -6.3929691 14.533661
-19.116299 -6.6802578 14.22847
-19.051645 -6.4551239 14.233839
-18.929422 -6.2382684 14.463116
-18.862429 -6.0104551 14.46995
-18.921976 -6.0173612 14.234926
-19.035677 -6.2244344 14.013833
-18.980484 -6.0527759 14.017927
-18.750769 -5.620307 14.438093
-18.733549 -5.6782169 14.58705
-18.59506 -5.3407035 14.71143
-18.646992 -5.3351355 14.486055
-18.483799 -5.0518041 14.785587
-18.50732 -4.9975801 14.611156
-18.696665 -5.340744 14.258869
-18.725933 -5.4674864 14.329985
-18.612217 -5.104517 14.266048
-18.410114 -4.6598969 14.502159
-18.518551 -4.9629607 14.494931
-18.532028 -4.8754635 14.249489
-18.505638 -4.7638288 14.1623
-18.75234 -5.3837771 14.033882
-18.811277 -5.5491486 14.029938
-18.647993 -5.09901 14.040673
-18.562796 -4.8739538 14.046041
-18.468527 -4.6310863 14.051834
-18.864611 -6.2411966 14.689956
-18.736851 -5.9007087 14.816117
-18.71895 -5.7324152 14.702088
-18.844385 -5.7797732 14.249945
-18.889088 -5.7742324 14.02457
-20.756714 -14.295346 12.301965
-20.837547 -14.292355 12.18928
-20.745659 -14.520453 12.283466
-20.830811 -14.517446 12.170782
-20.764933 -14.070173 12.317242
-20.840918 -14.0672 12.204556
-21.023588 -14.05961 11.915112
-20.770023 -13.844934 12.329237
-20.842028 -13.841975 12.216552
-20.772367 -13.619624 12.337883
-20.841425 -13.616677 12.225198
-20.95026 -14.287915 12.020917
-21.020134 -14.5679 11.894437
-20.953629 -14.06256 12.027797
-21.02037 -13.676541 11.92141
-20.954739 -13.837158 12.032322
-20.344072 -14.413016 12.802072
-20.35635 -14.263083 12.820999
-20.429325 -14.530932 12.672895
-20.557329 -14.302354 12.564322
-20.542038 -14.527345 12.540251
-20.566099 -14.152308 12.579383
-20.644001 -14.29934 12.451637
-20.632946 -14.524315 12.427567
-20.573336 -14.002273 12.593215
-20.494631 -13.855249 12.71834
-20.504793 -13.630099 12.734897
-20.585541 -13.627109 12.622211
-20.667435 -13.848891 12.479012
-20.714556 -14.970492 12.237669
-20.79982 -15.08472 12.112214
-20.78793 -15.234673 12.094193
-20.731953 -14.74549 12.261582
-20.820261 -14.742471 12.148898
-20.867315 -15.414263 11.958056
-20.771265 -15.417312 12.070741
-20.994856 -15.185566 11.844449
-20.98003 -15.410571 11.821049
-21.006489 -14.960506 11.865047
-20.902317 -14.964151 12.001412
-20.925142 -14.738687 12.006784
-20.772806 -13.39426 12.343934
-20.839289 -13.391323 12.231249
-20.673986 -12.721975 12.505871
-20.829189 -12.940417 12.2341
-20.835207 -13.16591 12.23449
-20.94803 -13.38633 12.039015
-20.937532 -13.160992 12.044386
-19.807064 -14.325056 13.397664
-19.921471 -14.321938 13.284981
-19.902819 -14.460368 13.261643
-19.879744 -14.610169 13.235485
-20.107292 -14.600389 13.011046
-20.034185 -14.318711 13.167539
-19.840092 -14.100278 13.433464
-19.948114 -14.097183 13.320781
-20.060827 -14.093858 13.199142
-20.140772 -14.315622 13.054855
-20.125887 -14.450539 13.034431
-20.162077 -14.090789 13.086458
-20.274792 -14.087224 12.954784
-20.369066 -14.084181 12.8421
-19.867481 -13.875452 13.466355
-19.969786 -13.872379 13.353671
-20.082499 -13.868943 13.227422
-19.883795 -13.720768 13.487769
-19.897638 -13.570847 13.507459
-20.100536 -13.643991 13.253546
-20.178795 -13.865893 13.114738
-20.19252 -13.640958 13.140862
-20.291508 -13.862223 12.978655
-20.305233 -13.637177 13.000169
-20.381918 -13.859195 12.865971
-20.39208 -13.634163 12.887484
-20.346889 -15.310363 12.554866
-20.215441 -15.432963 12.63914
-20.142006 -15.155955 12.804569
-20.279503 -14.983651 12.720669
-20.387995 -14.980555 12.607985
-20.366673 -15.160539 12.579558
-20.50071 -14.977204 12.485321
-20.554316 -15.423776 12.307494
-20.570292 -15.293436 12.327441
-20.601841 -14.974136 12.372637
-20.586073 -15.143556 12.349143
-20.65855 -15.420695 12.194811
-20.116987 -15.305722 12.776653
-20.176985 -15.657567 12.595172
-20.307886 -14.758834 12.75407
-20.410711 -14.755758 12.641386
-20.523424 -14.7523 12.514179
-20.619238 -14.749251 12.401495
-20.512524 -13.404882 12.748247
-20.589184 -13.401906 12.635562
-20.682045 -13.39808 12.489757
-20.51705 -13.179594 12.758101
-20.59033 -13.176631 12.645416
-20.68284 -13.172699 12.495129
-20.519075 -12.954246 12.765039
-20.589649 -12.951292 12.652354
-20.679949 -12.947331 12.5005
-20.519609 -12.728861 12.770251
-20.587915 -12.725917 12.657566
-21.191975 -15.178348 11.572907
-21.181103 -15.403477 11.555333
-21.06839 -15.407551 11.708364
-21.079264 -15.182561 11.731764
-21.199253 -14.953131 11.5862
-21.08654 -14.957518 11.752361
-21.268381 -15.175373 11.460223
-21.261776 -15.400485 11.442648
-21.35597 -15.171698 11.319931
-21.34626 -15.397113 11.314559
-21.27158 -14.950171 11.473515
-21.360071 -14.946304 11.325303
-21.202843 -14.727815 11.594738
-21.090132 -14.732423 11.770203
-21.271736 -14.724868 11.482053
-21.35911 -14.720929 11.330674
-21.516335 -15.164705 11.052026
-21.513491 -14.939326 11.056898
-21.611048 -14.934611 10.87456
-21.508476 -14.713866 11.058049
-21.598778 -14.709279 10.879931
-19.811134 -13.428762 13.638789
-19.909761 -13.425703 13.526105
-19.680397 -13.605327 13.740624
-20.111288 -13.489663 13.270348
-19.831533 -13.203824 13.665861
-19.925974 -13.200781 13.553177
-20.038687 -13.196987 13.411922
-20.120165 -13.339656 13.285609
-20.240431 -12.965109 13.17661
-20.223879 -13.19055 13.171238
-20.136894 -12.968895 13.319025
-20.330929 -12.961765 13.050673
-20.144539 -12.74379 13.337032
-20.316244 -13.412094 13.019647
-20.324821 -13.186956 13.036476
-20.399811 -13.409092 12.906962
-20.404337 -13.183969 12.923791
-19.848112 -12.978824 13.689712
-19.938438 -12.975796 13.577027
-20.051151 -12.971906 13.431709
-19.861338 -12.753776 13.711043
-19.948418 -12.75076 13.598358
-20.061131 -12.746791 13.449717
-20.406364 -12.958794 12.937987
-20.33465 -12.736523 13.062336
-20.406898 -12.733563 12.949651
-20.518785 -12.503425 12.773054
-20.584627 -12.50049 12.660368
-20.399139 -12.05755 12.969639
-20.579189 -12.274974 12.659087
-20.637804 -12.045978 12.521984
-20.259817 -12.514279 13.187354
-20.149244 -12.51862 13.351949
-20.262615 -12.288891 13.192726
-20.15122 -12.293384 13.363556
-19.871992 -12.52869 13.730408
-19.95628 -12.525685 13.617723
-20.068993 -12.52161 13.464633
-19.884514 -12.161347 13.757258
-19.961615 -12.300567 13.634809
-20.074327 -12.29636 13.476241
-20.262695 -12.063512 13.198097
-20.151768 -12.068099 13.372952
-20.259901 -11.838144 13.203468
-20.151182 -11.842776 13.380543
-20.336262 -12.511224 13.071297
-20.336233 -12.285874 13.077881
-19.888063 -12.01122 13.766609
-20.077505 -12.071066 13.485638
-20.079176 -11.845735 13.493228
-19.972363 -11.849976 13.654209
-20.334911 -12.060479 13.082324
-20.33185 -11.835013 13.083532
-20.392992 -11.832096 12.970847
-21.040937 -15.819108 11.659442
-20.810049 -16.004879 11.871804
-21.054901 -15.6325 11.682837
-21.255793 -15.55176 11.429283
-20.961819 -15.635537 11.795521
-19.371164 -13.441699 14.111699
-19.232988 -13.60873 14.193171
-19.25845 -13.444785 14.223301
-19.402151 -13.216917 14.147002
-19.289436 -13.220105 14.262901
-19.482338 -13.438592 13.999016
-19.459511 -13.614594 13.969576
-19.50733 -13.213833 14.034319
-19.003561 -13.598054 14.414707
-18.948837 -13.2294 14.598768
-18.974634 -13.076104 14.62701
-19.304638 -13.890923 14.026073
-19.349657 -12.77029 14.322688
-19.423567 -13.035643 14.173643
-19.220924 -12.917109 14.426863
-19.236944 -12.773723 14.448813
-19.439268 -12.885748 14.194742
-19.437784 -13.764392 13.943437
-19.595053 -13.435299 13.878743
-19.620045 -13.210443 13.910003
-19.69842 -13.432222 13.766059
-19.663214 -13.755188 13.717925
-19.718821 -13.207384 13.797318
-19.200905 -13.066932 14.402084
-19.130379 -12.776812 14.561497
-19.640656 -12.98554 13.938608
-19.654217 -12.81179 13.95896
-19.735399 -12.982496 13.825925
-19.664536 -12.661807 13.975501
-19.468414 -14.288178 13.732096
-19.611963 -14.10654 13.659971
-19.674086 -14.453341 13.483802
-19.64653 -14.603097 13.45506
-19.440477 -14.437912 13.702335
-19.49902 -14.780107 13.518167
-19.727377 -14.103417 13.547288
-19.754768 -13.878705 13.584947
-19.811007 -11.856161 13.888122
-19.370838 -12.545362 14.350347
-19.258125 -12.548885 14.480227
-19.388224 -12.320393 14.375607
-19.275509 -12.323998 14.508986
-19.467062 -12.542313 14.237662
-19.579775 -12.538627 14.100895
-19.481386 -12.317354 14.262922
-19.594099 -12.313567 14.121909
-19.682663 -12.310546 14.009225
-19.156971 -12.551953 14.592911
-19.178864 -12.32705 14.621671
-19.403381 -12.095378 14.398631
-19.290668 -12.09909 14.536482
-19.415918 -11.870326 14.419693
-19.492704 -12.092354 14.285947
-19.605419 -12.088461 14.140513
-19.502047 -11.867314 14.307009
-19.614759 -11.863329 14.157688
-19.691235 -12.085451 14.027829
-19.698294 -11.860327 14.045004
-19.207344 -11.976858 14.663865
-20.253477 -11.61279 13.20884
-20.149105 -11.617414 13.386236
-20.243681 -11.387449 13.214211
-20.145256 -11.391998 13.389451
-19.974833 -11.173831 13.670324
-20.07962 -11.620362 13.498921
-19.894537 -11.40261 13.794844
-20.230995 -11.162119 13.219583
-20.326651 -11.609455 13.080537
-20.385769 -11.606545 12.967851
-20.377399 -11.380914 12.961262
-19.816523 -11.630892 13.898949
-19.893528 -11.627915 13.786263
-19.819824 -11.405578 13.907529
-19.894236 -11.177263 13.801523
-19.822203 -10.954848 13.919768
-19.893095 -10.951894 13.807083
-18.929794 -9.8642483 15.327591
-19.008215 -9.8612661 15.214907
-18.92342 -10.089434 15.313128
-19.195789 -9.8538609 14.933995
-19.265509 -10.301392 14.798985
-18.934685 -9.6390171 15.339902
-19.011305 -9.6360416 15.227217
-19.380766 -9.8462257 14.643031
-19.380108 -10.071599 14.637339
-19.267397 -10.076165 14.811041
-19.268055 -9.8509016 14.82131
-19.379787 -9.6207762 14.645258
-19.19698 -9.6285486 14.942353
-18.937807 -9.4137306 15.349629
-19.012497 -9.4107618 15.236945
-18.833094 -8.9673424 15.527001
-19.011955 -9.1854305 15.244187
-19.446423 -9.6178379 14.532573
-19.263836 -9.4002542 14.835956
-19.250803 -8.9492817 14.835579
-19.258261 -9.1748314 14.838579
-19.196815 -9.4031935 14.948641
-19.194519 -9.1777582 14.951265
-19.370871 -10.747507 14.610261
-19.448824 -10.744527 14.497576
-19.365192 -10.972739 14.597871
-19.528864 -11.191634 14.346434
-19.636852 -10.737104 14.216025
-19.624979 -11.100469 14.214661
-19.375244 -10.522242 14.621066
-19.451065 -10.519269 14.508381
-19.637268 -10.511747 14.222363
-19.708765 -11.184733 14.085503
-19.706779 -10.508799 14.109677
-19.378222 -10.296938 14.630044
-19.452 -10.293973 14.517359
-19.451685 -10.068642 14.524653
-19.544569 -10.064683 14.373293
-19.538586 -9.8393278 14.378664
-19.696518 -10.05791 14.113253
-19.702522 -10.283397 14.113371
-19.890259 -10.726465 13.80988
-19.800858 -10.05297 13.922551
-19.45013 -9.843277 14.530346
-19.528862 -9.613986 14.384035
-19.688963 -9.8323336 14.109106
-19.515078 -9.3886595 14.389406
-19.679613 -9.6066732 14.101144
-19.440119 -9.3922892 14.529784
-19.668022 -9.3808937 14.087846
-19.7836 -9.8276567 13.927921
-18.832335 -8.7419662 15.532373
-19.009577 -8.9600487 15.249018
-19.113792 -8.9555368 15.076262
-18.827946 -8.5166044 15.537745
-19.005075 -8.7346039 15.25089
-19.102188 -8.7302017 15.081632
-19.241497 -8.7236147 14.827353
-18.998255 -8.5090675 15.248549
-19.086618 -8.5048828 15.087003
-19.189146 -8.9522009 14.948264
-19.229795 -8.4978533 14.814823
-18.906607 -10.53974 15.28078
-19.000143 -10.386511 15.172132
-18.977798 -10.857426 15.141589
-19.252481 -10.976901 14.754584
-19.258158 -10.751755 14.770561
-19.262531 -10.526586 14.785427
-18.915771 -10.314595 15.297435
-19.177334 -10.754746 14.883246
-19.16964 -10.9799 14.867269
-19.056927 -10.983896 15.017029
-19.422991 -11.668487 14.439631
-19.431341 -11.512609 14.449582
-19.622496 -11.638169 14.173462
-19.628496 -11.412961 14.186931
-19.358753 -11.197946 14.584262
-19.70381 -11.635176 14.060777
-19.707111 -11.409978 14.074246
-18.928965 -11.66196 15.061485
-19.023453 -11.658916 14.948801
-18.908949 -11.886909 15.034952
-19.007555 -11.88385 14.922268
-18.945078 -11.436967 15.085596
-19.036646 -11.433934 14.972912
-19.226812 -11.652163 14.697735
-19.237793 -11.427124 14.719117
-18.95904 -11.211948 15.10828
-19.047825 -11.208926 14.995596
-19.136166 -11.655191 14.810419
-19.149359 -11.430144 14.831801
-19.24604 -11.202032 14.737818
-19.160538 -11.205042 14.850502
-20.718275 -15.866999 12.006695
-20.826443 -15.863904 11.894011
-20.747108 -15.642177 12.039987
-20.849106 -15.639105 11.927303
-20.166788 -14.986793 12.834591
-19.971897 -14.768209 13.094065
-19.936537 -14.992853 13.05229
-19.880676 -15.288414 12.993691
-19.910751 -15.138685 13.023988
-20.045521 -15.66075 12.707854
-19.846613 -15.44206 12.96227
-20.195171 -14.762074 12.872119
-20.146105 -15.818004 12.562617
-20.353832 -15.99413 12.317122
-20.322807 -16.143871 12.287212
-20.560665 -16.158459 12.070398
-20.487429 -15.873302 12.234479
-20.417732 -16.322271 12.137686
-20.168968 -16.328051 12.340646
-20.60556 -15.870169 12.121797
-20.585644 -16.008675 12.097574
-19.790392 -16.131304 12.711925
-19.967291 -16.10923 12.589179
-19.926985 -16.265247 12.553065
-19.883163 -16.414896 12.517229
-20.080006 -16.106728 12.502105
-19.866055 -15.936042 12.741876
-20.113857 -15.96772 12.531407
-20.2897 -15.654741 12.494523
-20.411058 -15.651596 12.381841
-20.523773 -15.648553 12.272053
-20.634394 -15.645449 12.159369
-20.530447 -16.31953 12.040586
-19.389767 -15.229145 13.418002
-19.238161 -15.370304 13.46952
-19.27705 -15.231606 13.503363
-19.429144 -15.083485 13.450931
-19.447466 -15.561431 13.227007
-19.696932 -15.60056 13.019371
-19.637667 -15.263473 13.207223
-19.465837 -14.933814 13.484739
-19.611736 -14.777365 13.421051
-19.673138 -15.113764 13.239213
-19.733896 -15.444681 13.054345
-19.106594 -15.244841 13.623933
-18.982035 -15.328157 13.674225
-19.299921 -15.677196 13.279447
-19.73941 -14.774197 13.308369
-19.251638 -15.830054 13.240447
-19.5012 -15.896035 13.031684
-19.461504 -16.025702 12.999078
-19.335815 -16.110405 13.042735
-18.988514 -16.227613 13.205115
-18.93688 -15.907134 13.407741
-19.119665 -16.141144 13.168509
-19.199179 -15.979656 13.201265
-19.260168 -16.279896 13.007564
-19.200869 -16.429476 12.966341
-18.903391 -16.369648 13.173749
-19.656628 -15.750216 12.984339
-19.519182 -16.341557 12.804181
-19.613916 -15.893673 12.950466
-19.671827 -16.220333 12.757813
-19.631899 -16.339325 12.728419
-18.988258 -15.781986 13.441504
-18.934114 -15.46166 13.639715
-19.905252 -15.786357 12.775453
-18.882355 -14.58964 14.099176
-19.052856 -14.567192 13.975639
-19.096884 -14.788823 13.842492
-18.971804 -14.865569 13.903787
-18.924326 -15.016095 13.866714
-19.222071 -14.901577 13.69573
-19.165571 -14.564615 13.885405
-19.201746 -14.416903 13.917519
-18.870632 -14.12983 14.313149
-18.939579 -13.900064 14.351641
-18.996294 -14.241819 14.164353
-18.750874 -14.210204 14.374988
-19.235193 -14.267219 13.950227
-19.264843 -14.11552 13.981612
-19.499249 -14.10951 13.766706
-19.069235 -13.896887 14.238958
-18.973558 -13.747762 14.383545
-19.533287 -13.884871 13.808447
-20.137531 -16.458094 12.311479
-20.095196 -16.607769 12.277013
-18.903576 -12.783149 14.791354
-19.017666 -12.780031 14.678671
-18.997744 -12.926319 14.653889
-18.563421 -13.404025 14.878844
-18.528143 -13.553699 14.845371
-18.321079 -13.372595 15.090519
-18.263704 -13.022719 15.27985
-18.084702 -13.801597 15.070777
-18.130873 -13.651981 15.108415
-18.338997 -13.843113 14.865808
-18.28068 -13.522262 15.055984
-18.111813 -13.184477 15.333446
-18.070837 -13.334136 15.298467
-18.505541 -13.055439 15.065343
-18.297071 -12.880212 15.30981
-18.329269 -12.730495 15.340999
-18.536732 -12.905698 15.095304
-18.743628 -13.071643 14.848605
-18.769863 -12.921874 14.876631
-18.493397 -13.687284 14.814781
-18.711514 -13.235494 14.81675
-18.769478 -13.580446 14.632283
-18.826864 -13.902747 14.446335
-18.051531 -12.84903 15.521422
-18.70783 -12.56461 15.052625
-18.350325 -14.297556 14.635224
-18.597723 -14.35415 14.426311
-18.557539 -14.489447 14.391728
-18.506092 -14.639039 14.352311
-18.764608 -14.678986 14.147833
-18.710438 -14.351704 14.341573
-18.298178 -14.447131 14.594975
-18.99387 -12.046443 14.901269
-18.776302 -12.072193 15.133602
-18.935616 -12.558374 14.827141
-19.044258 -12.555277 14.714458
-18.963678 -12.333561 14.860678
-19.066149 -12.330487 14.747993
-18.979259 -12.196342 14.88058
-18.087633 -12.035571 15.796767
-18.058527 -12.185365 15.769316
-17.810183 -12.1391 15.98009
-18.088211 -12.699325 15.553784
-17.798103 -12.809703 15.729958
-18.022766 -12.357997 15.736535
-18.160675 -12.35479 15.623853
-17.87697 -12.510319 15.795058
-18.27339 -12.3521 15.528917
-18.461803 -11.899733 15.501965
-18.324825 -12.065801 15.581688
-18.349091 -11.902711 15.609034
-18.109364 -11.908617 15.818799
-18.299442 -12.215589 15.55462
-18.472328 -12.570741 15.27245
-18.511749 -12.346054 15.313073
-18.757635 -12.222031 15.109666
-18.531357 -12.226273 15.334376
-18.850965 -12.336774 14.977577
-18.822903 -12.561489 14.939942
-18.576763 -11.896611 15.389281
-18.553028 -12.076463 15.359963
-18.689478 -11.893431 15.273728
-18.796236 -11.890341 15.161045
-18.491688 -11.674925 15.53605
-18.602148 -11.671822 15.423367
-18.714861 -11.668561 15.304466
-18.513924 -11.489443 15.562598
-18.530733 -11.339543 15.58367
-18.735611 -11.443638 15.332216
-18.81625 -11.665491 15.191782
-18.832363 -11.440585 15.219532
-18.748411 -11.285075 15.350797
-18.673883 -10.99676 15.495917
-18.759295 -11.1351 15.367728
-18.870922 -10.992941 15.255075
-18.28483 -11.496273 15.786014
-18.40975 -11.417901 15.684841
-18.229918 -11.009781 15.971719
-18.094805 -11.17882 16.052734
-18.117203 -11.012753 16.078547
-18.305578 -11.346411 15.80924
-18.072672 -11.328667 16.028641
-18.344904 -11.00666 15.859035
-18.05072 -11.462306 16.006729
-18.432419 -11.228324 15.711714
-18.457619 -11.003406 15.740397
-18.561169 -11.000328 15.627713
-18.689943 -10.771764 15.51985
-18.782381 -10.768728 15.407166
-18.704063 -10.546734 15.542086
-18.793894 -10.543708 15.429401
-18.716463 -10.321665 15.562413
-18.803059 -10.318651 15.449729
-18.726902 -10.096567 15.581192
-18.810707 -10.093564 15.468508
-18.257353 -10.784898 16.002228
-18.144638 -10.787947 16.112259
-18.070768 -10.432656 16.276384
-18.28112 -10.559993 16.031227
-18.365913 -10.781801 15.889545
-18.383764 -10.556918 15.918544
-18.521521 -10.18013 15.831007
-18.307472 -10.262439 16.06744
-18.333635 -9.8851366 16.109335
-18.478628 -10.778447 15.7667
-18.496479 -10.553471 15.79177
-18.57723 -10.775388 15.654016
-18.591349 -10.550426 15.679086
-18.087629 -10.282754 16.297318
-18.295061 -10.412398 16.049591
-18.216833 -10.113186 16.197481
-18.104118 -10.116522 16.319542
-18.60375 -10.325445 15.703115
-18.529984 -10.030111 15.845705
-18.735504 -9.8714371 15.598362
-18.746374 -9.4853039 15.624066
-18.821972 -9.6432877 15.501202
-18.749454 -9.3351641 15.63283
-18.446348 -9.8814449 15.972354
-18.458916 -9.6563511 15.991638
-18.346201 -9.6601286 16.132236
-18.546806 -9.6533327 15.878953
-18.015162 -9.894701 16.460035
-18.12295 -9.8916073 16.347351
-18.235664 -9.8881931 16.222019
-18.036232 -9.6697283 16.485792
-18.138622 -9.6666555 16.37311
-18.251337 -9.6631737 16.244921
-18.469048 -9.4312181 16.008902
-18.356335 -9.4350901 16.153448
-18.477308 -9.2060566 16.024672
-18.364595 -9.2100163 16.172918
-18.554211 -9.4282103 15.896217
-18.560196 -9.2030573 15.911987
-18.635403 -9.8749743 15.730883
-18.054171 -9.4447432 16.510498
-18.152409 -9.4416857 16.397814
-18.265121 -9.4381208 16.266132
-18.065351 -9.2846508 16.527168
-18.074503 -9.1346273 16.541813
-18.276697 -9.2130346 16.285603
-18.753483 -8.9705696 15.649789
-18.334749 -6.2728696 16.058641
-18.034704 -6.063561 16.566656
-18.096882 -6.0606399 16.45397
-18.280422 -6.1980314 16.146521
-18.267282 -6.0520878 16.122223
-18.458933 -6.2815804 15.798693
-18.402132 -6.0444264 15.822189
-18.498831 -6.2116284 15.676431
-18.525661 -6.0368009 15.521856
-18.016596 -5.8374615 16.538889
-18.299551 -5.8618655 15.974006
-18.511429 -5.9166865 15.491151
-18.63661 -6.2581744 15.366076
-18.662373 -6.0273271 15.146071
-18.492565 -5.7652235 15.440923
-18.601683 -5.8021784 15.15144
-18.469656 -5.5861669 15.374853
-18.496487 -5.5099521 15.232548
-18.734289 -6.1443124 15.024697
-18.606701 -5.5714092 14.931436
-18.483849 -8.9808664 16.03899
-18.371136 -8.9848976 16.190226
-18.488354 -8.7556219 16.050699
-18.294794 -8.6524134 16.323956
-18.564817 -8.9778748 15.926306
-18.567179 -8.7526379 15.938014
-18.285816 -8.9879065 16.30291
-18.184288 -8.9912834 16.428478
-18.291382 -8.8025551 16.315195
-18.379723 -8.5344152 16.213854
-18.210976 -8.5404911 16.44195
-18.567101 -8.5273304 15.946342
-18.67753 -8.9735432 15.762473
-18.67989 -8.7482033 15.769847
-18.753765 -8.7452383 15.657162
-18.752403 -8.5198517 15.661978
-18.020775 -8.0969992 16.727312
-18.015461 -8.3222466 16.715576
-18.10276 -8.3192301 16.602892
-18.023653 -7.8717012 16.736511
-18.10692 -7.8687005 16.623825
-18.024109 -7.646328 16.742165
-18.105167 -7.6433358 16.62948
-18.021969 -7.4208713 16.743895
-18.094009 -7.1923547 16.629034
-17.998493 -6.9701924 16.755066
-18.085722 -6.9667649 16.624218
-17.881653 -6.5229845 16.895254
-18.067856 -6.5645485 16.609528
-17.983223 -8.9977322 16.667126
-17.99688 -8.7726221 16.685911
-18.091423 -8.769578 16.573227
-18.007622 -8.5474596 16.702042
-18.098263 -8.5444307 16.589357
-17.12932 -10.825293 16.935741
-17.079571 -10.360727 17.124687
-17.425913 -10.906806 16.685583
-17.450811 -10.58071 16.768621
-17.563526 -10.578173 16.680029
-17.66647 -10.79973 16.530735
-17.641048 -10.950233 16.505709
-17.878662 -11.01869 16.289753
-17.858564 -11.146239 16.268856
-17.702059 -10.574963 16.567347
-17.837915 -10.416975 16.496199
-17.238613 -10.301372 17.0214
-17.404865 -10.040973 16.972769
-17.622091 -10.234119 16.7353
-17.858793 -10.267102 16.518986
-17.644466 -10.084258 16.758804
-17.326847 -9.6880875 17.14341
-17.669422 -9.9037905 16.786512
-17.3629 -9.4632769 17.178335
-17.187548 -9.8442783 17.209969
-16.979628 -9.7865915 17.392216
-17.214132 -9.6907272 17.236294
-17.618792 -9.3361521 16.982069
-17.490696 -9.4601078 17.065651
-17.405684 -9.1653357 17.223581
-17.72164 -9.4541492 16.852337
-17.782137 -9.9009428 16.684948
-17.635292 -9.1862373 17.002447
-17.902447 -9.8978024 16.572264
-17.810186 -9.6760464 16.714966
-17.923517 -9.6729317 16.602283
-17.145741 -9.2846117 17.416477
-17.17012 -9.134758 17.440638
-17.845655 -9.3346796 16.757851
-17.941458 -9.4480391 16.630882
-16.868189 -10.153981 17.354345
-17.424717 -9.0136404 17.245872
-17.561699 -8.7856903 17.165123
-17.448984 -8.7887726 17.276531
-17.765514 -9.004281 16.90732
-17.6528 -9.0075321 17.025822
-17.670702 -8.7825928 17.052439
-17.783415 -8.7792501 16.930103
-17.87051 -9.0011978 16.794636
-17.857437 -9.1846991 16.774733
-17.884165 -8.7761831 16.817419
-17.328621 -8.791914 17.389214
-17.580736 -8.5606766 17.188801
-17.468021 -8.5638485 17.303978
-17.595812 -8.3356266 17.210344
-17.483099 -8.3388748 17.328718
-17.684845 -8.5575972 17.076117
-17.797558 -8.554183 16.950762
-17.696531 -8.3325596 17.09766
-17.809244 -8.3290672 16.96904
-17.894909 -8.5511284 16.838079
-17.902748 -8.3260279 16.856356
-17.353622 -8.566967 17.41666
-17.374018 -8.3419733 17.441402
-16.722221 -9.5949583 17.656057
-16.501484 -9.3884354 17.890463
-16.52763 -9.2584572 17.913633
-16.729206 -10.275667 17.417519
-16.900637 -9.2502432 17.628258
-16.78792 -9.2527723 17.716469
-16.939194 -10.475583 17.193489
-17.181965 -11.378931 16.712902
-17.087063 -8.7979422 17.603796
-17.215906 -8.7947693 17.491114
-16.953207 -8.9438925 17.678389
-17.14308 -8.3481274 17.662941
-17.261303 -8.3449945 17.550259
-17.607384 -8.1105213 17.228987
-17.394928 -8.0385609 17.470695
-17.613426 -7.9681358 17.239544
-17.704931 -8.1074657 17.116302
-17.817644 -8.1038942 16.984335
-17.618481 -7.8180199 17.249651
-17.822733 -7.8786535 16.996294
-17.908062 -8.1008663 16.871651
-17.91094 -7.8756342 16.88361
-17.385557 -8.1886015 17.456774
-17.525675 -7.6632166 17.371605
-17.533165 -7.4379382 17.382341
-17.625532 -7.4349027 17.269657
-17.724566 -7.4314899 17.142189
-17.72023 -7.6568847 17.136818
-17.825165 -7.6533499 17.005188
-17.825447 -7.4279933 17.011509
-17.909258 -7.4249902 16.898825
-17.402748 -7.8918552 17.483494
-17.087738 -7.6762595 17.849304
-17.198229 -7.6731558 17.73662
-17.184147 -7.8982 17.715002
-17.172382 -8.0497465 17.698502
-17.101048 -7.4511232 17.866943
-17.20804 -7.4480329 17.754259
-17.158585 -8.1997185 17.680946
-17.278969 -8.1191311 17.575821
-17.296862 -7.8949413 17.596176
-17.41296 -7.6667438 17.501682
-17.42045 -7.4415865 17.517517
-17.310944 -7.6698155 17.614365
-17.320753 -7.4446492 17.630201
-17.378174 -11.701114 16.458002
-17.440212 -12.102683 16.266224
-17.403929 -11.588592 16.479307
-17.434933 -11.438787 16.506571
-17.687105 -11.470725 16.302227
-17.685389 -12.812039 15.810064
-17.622738 -12.459433 16.000616
-17.910051 -12.360531 15.824948
-17.659855 -12.309689 16.031395
-17.697466 -12.141538 16.064444
-17.839304 -12.660029 15.762799
-17.653992 -11.641742 16.271427
-17.79982 -11.468184 16.213511
-17.871019 -11.840414 16.034369
-17.831774 -11.296065 16.243134
-17.91169 -10.793909 16.325432
-17.914707 -13.476581 15.343953
-17.860313 -13.142374 15.539941
-18.143206 -14.102523 14.877982
-18.646564 -15.67188 13.71333
-18.824163 -15.909205 13.476776
-18.567451 -15.382918 13.921924
-18.821398 -15.463875 13.714723
-18.777697 -15.583376 13.681771
-18.648325 -15.225146 13.95291
-18.564548 -14.939755 14.158309
-18.725069 -14.797327 14.117797
-18.773674 -15.135602 13.916621
-18.506941 -15.089343 14.117702
-18.356186 -14.742364 14.400233
-18.612352 -14.799617 14.195976
-18.980057 -16.665033 12.96456
-18.83852 -16.307756 13.24633
-18.776308 -16.024349 13.44363
-18.426132 -14.117176 14.667551
-18.544956 -14.028526 14.620588
-18.293089 -13.992721 14.827912
-18.212292 -14.160933 14.799433
-19.050898 -16.515478 13.008644
-19.117331 -16.796408 12.811985
-19.044506 -16.945356 12.766028
-19.55406 -16.557247 12.674009
-19.338337 -16.561296 12.809606
-19.339216 -16.792555 12.685559
-19.556892 -16.7691 12.563916
-19.33692 -17.007145 12.56933
-16.475655 -0.7296558 16.334961
-16.35224 -0.65921909 16.627146
-16.582508 -0.8729828 16.171032
-16.443701 -0.57678723 16.22369
-16.642828 -0.87848675 15.944664
-16.539766 -0.64239466 15.951024
-16.497353 -0.44090107 15.730324
-16.328312 -0.42855975 16.407139
-16.238951 -0.30771932 16.537514
-16.208508 -0.14968035 16.413792
-16.4624 -0.52830321 16.074509
-16.226946 -0.10226306 16.275295
-16.425503 -0.38316503 15.957208
-16.382431 -0.18686175 15.736383
-17.105854 -1.7287138 15.474098
-17.057045 -1.5258355 15.253431
-17.172215 -1.7915747 15.247092
-16.894028 -1.2397456 15.485762
-16.953159 -1.287659 15.249581
-16.916636 -1.1798179 15.17063
-17.094755 -1.5399827 15.015719
-17.179142 -1.7311407 15.011159
-16.984129 -1.2953615 15.033422
-16.779196 -0.84538037 15.044156
-17.003611 -1.2899162 14.808046
-16.881517 -1.0220301 14.814437
-16.722433 -0.84716934 15.477684
-16.687962 -0.73845822 15.393481
-16.754997 -0.85084361 15.269532
-16.548719 -0.40086755 15.280266
-16.457401 -0.30101815 15.605309
-16.420212 -0.19341256 15.523913
-16.715372 -0.66534847 14.822946
-16.48851 -0.22070058 15.059058
-16.585171 -0.38998634 14.829515
-16.440872 -0.089803778 14.836676
-16.311901 0.043621283 15.516376
-16.274401 0.05077076 15.73544
-16.098415 0.49357006 15.527109
-16.236515 0.16162656 15.658507
-16.258209 0.21597761 15.294981
-16.356745 0.054534256 15.065624
-16.21147 0.35080987 15.072692
-16.3668 0.059943974 14.840247
-16.271297 0.25019699 14.844787
-16.720264 -0.65133542 14.597775
-16.939377 -1.1156697 14.586698
-16.720385 -0.64772058 14.372355
-16.888561 -0.9937138 14.364102
-16.590528 -0.38459441 14.604137
-16.497171 -0.19521341 14.608656
-16.884861 -0.99449384 14.138578
-16.939701 -1.1069756 14.135896
-16.800552 -0.82381296 14.142651
-17.007166 -1.268416 13.90654
-16.210461 0.095636912 15.968629
-16.192217 0.019833468 16.198755
-16.120501 0.49902529 15.301733
-15.978427 0.78419155 15.308537
-16.13418 0.50444871 15.076357
-16.040987 0.68721211 15.080717
-16.13356 0.021459928 16.417873
-16.089556 0.25204334 16.197866
-16.045013 0.45482942 15.977198
-17.385386 -2.5080063 15.630933
-17.582724 -2.8010156 15.26183
-17.440378 -2.4258983 15.231961
-17.596334 -2.7601509 15.112467
-17.355488 -2.3548081 15.506162
-17.334011 -2.1713004 15.238034
-17.370897 -2.3116481 15.356853
-17.559099 -2.6241789 15.001726
-17.474918 -2.4203959 15.006586
-17.212267 -1.9813764 15.468071
-17.282339 -1.970368 15.017321
-17.22094 -1.7344787 14.571937
-17.230053 -1.7290726 14.34656
-17.022861 -1.2791001 14.357294
-17.160273 -1.5693101 14.124866
-17.156271 -1.5735385 13.899261
-17.208466 -1.7130394 13.670429
-18.00905 -3.4868917 13.402611
-17.900171 -3.2773266 13.182106
-18.010159 -3.5183933 13.163734
-17.867317 -3.257679 12.960864
-17.979719 -3.4970322 12.951361
-17.783066 -3.0248015 13.188129
-17.774836 -3.0639081 12.965487
-16.217384 -1.065836 17.362518
-16.250019 -0.97788489 17.214275
-16.078352 -0.42645717 17.103355
-16.250072 -0.74539012 16.998791
-16.366068 -0.88991666 16.847151
-16.219175 -0.59336805 16.923206
-16.184608 -0.44609085 16.854025
-16.246128 -0.52335638 16.774538
-17.253607 -3.5964694 17.008108
-17.153387 -3.4692082 17.134964
-16.940788 -3.2058356 17.392254
-17.16374 -3.2055724 16.941599
-16.241459 -2.6200781 18.26968
-16.463654 -2.853143 18.031801
-16.290916 -2.9551277 18.331169
-16.443357 -2.7211955 18.001848
-16.659725 -2.9399149 17.751453
-16.265028 -2.3136623 18.091064
-16.484461 -2.5539517 17.850349
-16.459406 -2.4027824 17.81147
-16.039057 -2.0538256 18.321507
-16.240049 -2.1625683 18.055363
-16.256392 -1.8821599 17.867405
-17.021397 -3.6080911 17.458851
-16.900864 -3.3428683 17.539326
-16.229694 -1.7308775 17.823519
-16.240337 -1.4677066 17.626385
-16.001036 -0.82118237 17.618004
-16.002825 -0.57265961 17.408585
-16.006804 -0.34061682 17.193668
-15.759609 -1.1109265 18.262203
-15.987662 -1.3705646 18.030468
-15.787833 -1.2621974 18.305845
-15.802734 -0.99050981 18.114735
-16.022785 -1.225814 17.873911
-16.030952 -0.97274345 17.674091
-18.404181 -5.3575406 15.387551
-18.277758 -5.0337787 15.497485
-18.474348 -5.351716 15.161564
-18.4065 -5.1267819 15.167546
-18.276396 -4.803494 15.273761
-18.30044 -4.955534 15.349012
-18.496414 -5.2726994 15.008451
-18.470047 -5.1281753 14.93884
-18.319618 -4.4188557 14.51624
-18.360754 -4.4293337 14.282152
-18.254267 -4.1535139 14.288731
-18.245228 -4.218987 14.521007
-18.386625 -4.4238639 14.056776
-18.309658 -4.2320852 14.061351
-18.158468 -3.984714 14.518263
-18.18598 -3.9792383 14.292888
-18.205299 -3.9737935 14.067512
-15.428583 -7.041604 19.342295
-15.541299 -7.0393333 19.26491
-15.635072 -7.4858718 19.092093
-15.565962 -6.8618417 19.286448
-15.468713 -6.5919518 19.405745
-15.596676 -6.5893254 19.315872
-15.584312 -6.7118411 19.303509
-15.321954 -6.5949259 19.507212
-15.925531 -8.1520271 18.703382
-16.040529 -8.2661352 18.589453
-15.840404 -7.890552 18.842855
-16.099422 -7.9244299 18.643267
-15.747787 -7.4835997 19.01466
-15.87223 -7.7052116 18.87101
-15.984945 -7.7028275 18.788874
-15.917296 -7.4760618 18.894243
-16.034451 -7.3622818 18.834593
-16.261385 -7.5840006 18.604269
-16.008852 -8.415987 18.564047
-16.325012 -8.1435928 18.412939
-16.28866 -8.3684168 18.378555
-15.800996 -7.1149397 19.060854
-15.818835 -6.9649491 19.078239
-16.070255 -7.0279684 18.872066
-16.051861 -7.212297 18.852173
-16.18297 -7.0253744 18.78113
-15.835758 -6.8086815 19.095787
-15.948474 -6.8061366 19.006903
-15.856438 -6.5836487 19.118933
-15.969152 -6.5810351 19.027182
-16.31846 -7.0221758 18.668447
-16.216171 -6.5751162 18.818068
-16.299332 -7.2472072 18.645485
-16.279358 -7.4340487 18.623295
-16.65214 -7.2384329 18.333364
-16.63228 -7.4634933 18.311497
-16.534111 -7.2416124 18.440147
-16.412048 -7.2444611 18.548164
-16.668346 -7.0133295 18.35285
-16.431175 -7.0194073 18.570181
-16.228279 -6.3499398 18.833817
-16.449411 -6.7943673 18.585192
-16.680323 -6.7881732 18.369423
-16.687672 -6.5629449 18.382267
-16.574957 -6.5659714 18.491337
-16.456415 -6.5691056 18.604019
-15.729067 -6.3617735 19.251053
-15.871959 -6.3585467 19.138371
-15.984674 -6.3559003 19.045225
-15.753975 -6.1364818 19.258081
-15.995895 -6.1307135 19.060411
-16.237167 -6.1247234 18.847391
-15.761602 -5.9112148 19.272694
-16.003044 -5.9054627 19.072269
-15.893761 -5.682889 19.177961
-15.760379 -5.6860795 19.290644
-16.006475 -5.6801481 19.080864
-16.242111 -5.8994474 18.857853
-16.242533 -5.6740899 18.864162
-15.355326 -6.2605305 19.538425
-15.341427 -6.4106021 19.525059
-15.616351 -6.3642387 19.336596
-15.630379 -6.139091 19.353868
-15.240726 -5.9224834 19.665354
-15.380675 -5.919591 19.566212
-15.393385 -5.6944189 19.582268
-15.506101 -5.6919193 19.495289
-16.355886 -6.1215882 18.734709
-16.351301 -6.3467884 18.721132
-16.691347 -6.3376517 18.391779
-16.578632 -6.3407483 18.503813
-16.69219 -6.1122999 18.398407
-16.579475 -6.1154814 18.513994
-16.470348 -5.8932548 18.634274
-16.464016 -6.3438678 18.616497
-16.468599 -6.118587 18.626677
-16.690454 -5.8868942 18.402349
-16.57774 -5.8901629 18.521589
-16.686161 -5.6614289 18.403397
-16.468834 -5.66786 18.638699
-16.885635 -7.2322655 18.111681
-16.975025 -7.679347 17.960939
-16.896729 -7.0070863 18.127155
-16.784014 -7.0102062 18.240166
-16.997757 -7.2291555 17.998997
-16.988333 -7.4542785 17.981421
-17.11047 -7.2259302 17.881565
-17.004356 -7.003993 18.014471
-17.117069 -7.0006843 17.893551
-16.791901 -6.7850652 18.256739
-16.904615 -6.7818666 18.14044
-16.796455 -6.5598474 18.269583
-16.909168 -6.5565953 18.15102
-17.008537 -6.7787876 18.027756
-17.12125 -6.7753844 17.90287
-17.010162 -6.5535274 18.038336
-17.122877 -6.5500259 17.909334
-16.437727 -8.1410789 18.325356
-16.401377 -8.3659372 18.2924
-16.485313 -7.7932453 18.371872
-16.356607 -7.9187341 18.445122
-16.724262 -7.8467178 18.156599
-16.395809 -7.7097616 18.463297
-16.797781 -6.3345628 18.279097
-16.910496 -6.3312564 18.158264
-16.795759 -6.1092224 18.285723
-16.908474 -6.1058373 18.161608
-17.008959 -6.328198 18.045582
-17.121672 -6.3246098 17.912916
-17.110849 -6.099287 17.921701
-16.790871 -5.8838286 18.289665
-16.903585 -5.8803439 18.161373
-16.890343 -5.6549096 18.165302
-17.103582 -5.8737264 17.919666
-16.995983 -5.6514392 18.036171
-16.977095 -5.4261446 18.039331
-16.690247 -8.1352253 18.119883
-16.658327 -8.360096 18.088137
-16.57753 -8.1378641 18.212675
-16.545612 -8.3627052 18.179718
-16.707949 -7.9966831 18.138393
-16.95635 -7.9043393 17.936403
-16.943575 -8.0339222 17.920786
-16.904854 -8.3541555 17.878014
-17.030365 -8.3509941 17.765331
-17.214567 -7.2228503 17.768883
-17.218044 -6.9976163 17.780869
-17.537151 -7.2125993 17.390005
-17.424437 -7.2163572 17.529772
-17.424725 -6.9910388 17.537716
-17.218662 -6.7723298 17.790188
-17.216806 -6.5469847 17.79665
-17.327282 -7.2194104 17.642456
-17.330757 -6.9940805 17.6504
-17.531347 -6.5362573 17.396502
-17.430563 -6.7653651 17.532278
-17.42725 -6.5398865 17.533649
-17.331375 -6.7686872 17.655251
-17.322104 -6.5434747 17.666828
-17.215717 -6.0957608 17.790205
-17.611301 -6.4017401 17.281591
-17.41283 -6.3147378 17.544952
-17.505375 -6.0854211 17.399786
-17.4049 -6.0891895 17.541937
-17.199524 -5.8705692 17.798241
-17.188358 -5.6449389 17.791267
-17.487646 -5.8673239 17.399939
-17.386219 -5.712316 17.527782
-17.312237 -5.866549 17.647465
-16.679171 -5.4358945 18.401096
-16.463606 -5.4423885 18.63933
-16.668945 -5.2102838 18.395103
-16.454657 -5.216826 18.635551
-16.223989 -4.9976029 18.862558
-16.329983 -4.9945164 18.749874
-16.232508 -5.2231574 18.865934
-16.213152 -4.7719817 18.856005
-16.442698 -4.9911799 18.627789
-16.238949 -5.4486547 18.866579
-16.655376 -4.9845924 18.385183
-16.547403 -4.9878497 18.509624
-16.639366 -4.7587991 18.370586
-16.526653 -4.7624159 18.50444
-16.300205 -4.5432281 18.733591
-15.765006 -5.4607687 19.299572
-16.00651 -5.4547715 19.086304
-15.766493 -5.2354102 19.306015
-15.890945 -5.2322536 19.193333
-16.00366 -5.2293434 19.089128
-16.126234 -5.4516325 18.973621
-16.119793 -5.2262182 18.976446
-15.763989 -5.0099859 19.309052
-15.885501 -5.0068402 19.196369
-15.998216 -5.0038676 19.08956
-15.757256 -4.7844877 19.30834
-15.877042 -4.7813487 19.195658
-15.989757 -4.7783308 19.086933
-16.100437 -4.7752266 18.974251
-16.780859 -5.4325609 18.280779
-16.763309 -5.2072411 18.282419
-16.868578 -5.2035728 18.152105
-16.963713 -5.2004719 18.030228
-16.749245 -4.9815516 18.272499
-16.861958 -4.9777069 18.129093
-16.731449 -4.7557645 18.257902
-16.934977 -4.8184266 18.003975
-16.947725 -4.9746966 18.016407
-17.047104 -4.9710069 17.877377
-17.162342 -5.2516255 17.768677
-17.120579 -4.7415128 17.72172
-17.151014 -5.101059 17.757286
-15.135407 -5.4748087 19.788685
-15.401265 -5.4691844 19.594913
-15.267513 -5.2468977 19.70743
-15.404556 -5.2438822 19.604006
-15.51398 -5.4666505 19.5065
-15.653778 -5.2381296 19.402214
-15.404169 -5.0185304 19.610413
-15.258239 -4.7963724 19.727739
-15.401034 -4.7931466 19.615059
-15.517272 -5.2413321 19.514896
-15.651275 -5.0127559 19.407372
-15.644541 -4.7873187 19.409218
-15.516884 -5.0159497 19.520054
-15.51375 -4.7904997 19.5219
-17.270813 -5.4118404 17.643009
-16.571228 -9.0337343 17.953419
-16.709185 -8.896327 17.890131
-16.489594 -8.6955547 18.125645
-16.735168 -8.7464857 17.915066
-16.87351 -8.579031 17.846601
-16.278315 -9.1751909 18.123075
-16.197435 -8.8179426 18.301695
-16.267752 -8.4877605 18.359415
-16.516035 -8.5457125 18.150618
-15.209237 -6.5971227 19.581488
-15.087502 -6.1503191 19.738749
-14.906244 -5.6991143 19.918571
-15.107907 -5.9251933 19.757965
-15.129451 -5.6084795 19.780901
-14.854237 -5.4803634 19.977079
-14.74152 -5.4825335 20.050241
-14.865641 -5.2551222 19.990025
-15.01359 -5.4772277 19.870832
-15.012737 -5.2521739 19.889687
-15.142533 -5.2495446 19.799963
-15.011885 -5.0270123 19.904007
-15.145533 -5.0242314 19.808561
-14.873858 -5.0298495 20.001122
-14.877838 -4.8045292 20.009563
-15.145523 -4.7988772 19.814928
-14.474738 -5.0375323 20.260109
-14.613016 -4.8097534 20.185253
-14.334735 -4.8149204 20.359308
-14.480695 -4.8122396 20.270014
-14.876758 -4.5791469 20.014589
-14.764042 -4.5814104 20.091667
-14.871284 -4.3537035 20.016363
-14.758567 -4.3560114 20.095291
-15.143112 -4.5734844 19.819311
-15.255827 -4.5709391 19.730417
-15.137072 -4.3480363 19.820801
-15.249787 -4.3454461 19.730015
-14.595322 -4.5847344 20.20435
-14.593507 -4.3593216 20.207973
-14.862465 -4.1282096 20.015493
-14.749748 -4.1305609 20.096247
-14.850702 -3.9026732 20.012356
-14.737987 -3.9050567 20.094463
-15.373425 -4.1166759 19.612696
-15.128852 -4.1693549 19.819233
-15.119706 -4.0189767 19.816082
-14.998088 -3.8994298 19.899675
-15.356708 -3.8910294 19.604164
-14.587596 -4.1338601 20.208927
-14.464592 -3.9106188 20.284418
-14.482605 -4.586905 20.27751
-14.480791 -4.3615284 20.282677
-14.47488 -4.1361022 20.285093
-15.395183 -4.5677261 19.617735
-15.38625 -4.3422441 19.617334
-15.746981 -4.5589213 19.30419
-15.634266 -4.5618181 19.407822
-15.734485 -4.3332915 19.29701
-15.62177 -4.3362656 19.403896
