# .PCD v0.7 - Point Cloud Data file format
VERSION 0.7
FIELDS x y z
SIZE 4 4 4
TYPE F F F
COUNT 1 1 1
WIDTH 1481
HEIGHT 1
VIEWPOINT 0 0 0 1 0 0 0
POINTS 1481
DATA ascii
0.88095635 0.42496848 0.36408293
0.88441509 0.42698812 0.36861703
0.88281071 0.42481947 0.36913595
0.88551199 0.42685699 0.37165287
0.90905523 0.44879416 0.39294702
0.90819114 0.45243034 0.38688937
0.90716106 0.45340204 0.38549301
0.90549821 0.45366332 0.38287368
0.9068085 0.45570844 0.38035786
0.90831494 0.45543453 0.37992772
0.90789789 0.45812398 0.37392995
0.9063642 0.45696348 0.37712735
0.90655881 0.45803359 0.37267515
0.90526712 0.45516303 0.37896109
0.90273535 0.45190373 0.37761056
0.90108168 0.44916674 0.38091978
0.90284556 0.45001826 0.38186979
0.90299255 0.44825464 0.38547742
0.90655214 0.4510642 0.3896547
0.90762627 0.44991603 0.39238378
0.90074354 0.44079292 0.39812848
0.90314537 0.44275284 0.39725295
0.90602446 0.45146292 0.38806936
0.9078986 0.44780713 0.39668924
0.90881389 0.44560257 0.39985302
0.90639007 0.44888109 0.39333421
0.89541918 0.47422546 0.31630102
0.89728665 0.47661144 0.31324485
0.8913886 0.47768387 0.30174276
0.88870734 0.47219536 0.30454737
0.89036882 0.47087553 0.31094003
0.89180225 0.4746336 0.30751485
0.89343643 0.47896177 0.30257103
0.89370465 0.48151177 0.29411381
0.89730656 0.47982436 0.30475357
0.89368796 0.47633195 0.30905023
0.88669825 0.4705008 0.30125451
0.88473296 0.46673071 0.29815045
0.88448429 0.46215382 0.30304542
0.88565987 0.46568453 0.30212492
0.88730824 0.47353557 0.29941764
0.88421661 0.45821923 0.30708754
0.8714059 0.40077829 0.38092732
0.87015498 0.39791352 0.38209191
0.87271053 0.40684205 0.37375423
0.87537646 0.40988836 0.37368253
0.87766069 0.41063392 0.37712765
0.87206954 0.40309846 0.37824178
0.87371218 0.40650919 0.376531
0.87106997 0.40160167 0.37773803
0.87322694 0.40034464 0.3856692
0.87727803 0.40155041 0.39120406
0.87450051 0.39816868 0.3922208
0.87233955 0.39319015 0.3977325
0.86904538 0.3925896 0.39169493
0.87605256 0.39719781 0.39647818
0.87839234 0.40442586 0.39561078
0.87869549 0.40719035 0.38840541
0.87916189 0.40107685 0.40148929
0.87815088 0.40134728 0.39719298
0.88669342 0.4093703 0.40512034
0.88932794 0.41800454 0.40466395
0.86989051 0.39619589 0.38635018
0.87057149 0.39474654 0.39201906
0.87208337 0.39844874 0.38667917
0.8810789 0.40827599 0.39475206
0.88412583 0.40903801 0.39971232
0.88656229 0.41280425 0.39898673
0.8592999 0.38200656 0.40796629
0.86869186 0.37618652 0.4223325
0.85992759 0.36952463 0.42418197
0.85810572 0.37344706 0.41709465
0.85588223 0.36970904 0.42016178
0.85165626 0.37097809 0.41453695
0.85229087 0.36673573 0.42051196
0.8712343 0.36132932 0.45822558
0.87113661 0.36105397 0.46488556
0.86820942 0.34737235 0.48294973
0.86628866 0.34363812 0.48208266
0.86741829 0.34872213 0.47488418
0.87344116 0.35962397 0.47854954
0.8760469 0.36207488 0.48330551
0.85694194 0.37591553 0.41317901
0.8532806 0.37375286 0.41290912
0.86100686 0.35826981 0.4420653
0.85767615 0.35183272 0.4466916
0.86150169 0.35507873 0.44715247
0.84948707 0.3667658 0.4166266
0.87950498 0.3817884 0.44170174
0.90278131 0.43449381 0.41548303
0.89953971 0.43247083 0.4146474
0.88910252 0.43567458 0.37273583
0.8883518 0.43223336 0.37218699
0.89090425 0.43407789 0.3801612
0.89333659 0.43589202 0.38559788
0.89105046 0.43631566 0.37835205
0.87227643 0.36630586 0.45045698
0.88409072 0.38373014 0.46709907
0.88242263 0.37491745 0.48552096
0.88336319 0.37703288 0.48592746
0.88134229 0.37436792 0.48008391
0.88855433 0.38390002 0.49311182
0.8963145 0.40182647 0.47037166
0.89238465 0.39545521 0.47641471
0.89242494 0.39531958 0.47968593
0.89840728 0.41024664 0.45760503
0.87737209 0.36645782 0.48168254
0.87826586 0.37084606 0.47843489
0.8673625 0.35339314 0.46313527
0.86379927 0.34257263 0.47568738
0.86045831 0.34096724 0.47091043
0.86348444 0.33922285 0.48015749
0.8569901 0.32522431 0.48823217
0.8550306 0.31957853 0.49993938
0.85330176 0.33633766 0.46119907
0.8515268 0.33607587 0.45577034
0.85258007 0.33390033 0.46238515
0.86369896 0.34900182 0.46315125
0.8658269 0.35510242 0.45646369
0.86242688 0.34960058 0.45897445
0.86120462 0.34566471 0.4643743
0.83827311 0.33521739 0.44279513
0.82639086 0.32300982 0.47084489
0.82806522 0.29619411 0.49267611
0.822128 0.29551694 0.48475984
0.82428861 0.29816279 0.48447132
0.82756031 0.2878316 0.4986001
0.82665068 0.29060501 0.49761423
0.83058298 0.28765529 0.50327158
0.83068395 0.29068533 0.50329101
0.83148432 0.29327816 0.50159544
0.83378208 0.29583868 0.50096625
0.83400202 0.28966683 0.50765961
0.83450633 0.28780481 0.50840753
0.83070719 0.27809575 0.51771551
0.82672542 0.28123921 0.50704306
0.83067828 0.28196245 0.51026499
0.82450062 0.2833949 0.50220317
0.82145339 0.28576571 0.49613526
0.82453918 0.28630316 0.49740499
0.82094407 0.27101323 0.51528114
0.80785912 0.28407073 0.48994374
0.81969398 0.28390211 0.49660939
0.82760078 0.28636846 0.5004257
0.79970914 0.27112651 0.49848875
0.79815894 0.26775697 0.49923298
0.82820481 0.2707946 0.52881342
0.82887185 0.26876396 0.53451991
0.83374709 0.27169305 0.53986633
0.83401412 0.27917442 0.52232897
0.82485992 0.31260917 0.47718644
0.82702374 0.31459826 0.47751573
0.87456685 0.35606679 0.49442688
0.88428742 0.37044188 0.51787901
0.88970727 0.39233205 0.47460762
0.9078294 0.43438196 0.42225942
0.89423531 0.42175359 0.42000332
0.8957454 0.42098323 0.42731532
0.90680116 0.4408626 0.41070074
0.90603518 0.44347748 0.40398017
0.90661949 0.44247687 0.4072516
0.90265155 0.437583 0.40825787
0.90003234 0.4352206 0.40916476
0.90396357 0.44000882 0.40580335
0.90309012 0.43993449 0.4029249
0.90475893 0.45550013 0.37499526
0.90044796 0.45351627 0.3716014
0.90403163 0.4589026 0.36523145
0.90877664 0.46291885 0.35965812
0.90459132 0.46191394 0.36004937
0.90763372 0.46303856 0.36089256
0.9073078 0.46106157 0.36654097
0.9079048 0.46011528 0.36873552
0.89625162 0.46070158 0.34744477
0.8981902 0.46187207 0.35071328
0.89295739 0.4558492 0.34860018
0.89651752 0.45833778 0.35210502
0.89327323 0.45775932 0.34473905
0.90034461 0.46434337 0.34789887
0.90785086 0.464504 0.35684198
0.90662801 0.46519071 0.35519549
0.90425503 0.46393821 0.35446438
0.90188998 0.46031317 0.35858846
0.90161467 0.46157941 0.35557583
0.89954668 0.46019214 0.3565245
0.90190619 0.47512746 0.32348073
0.90440685 0.47374102 0.3302986
0.9029429 0.47322103 0.33012521
0.90352702 0.47162944 0.33470696
0.9034757 0.4758299 0.32254511
0.89931786 0.47506183 0.31993997
0.89572024 0.47113481 0.32365236
0.89421153 0.46986336 0.3212795
0.89005494 0.46870488 0.31418073
0.88785142 0.46644691 0.31079036
0.90010095 0.4733026 0.32566369
0.89922583 0.47029814 0.33104014
0.89484477 0.46790862 0.3266837
0.89088804 0.46376932 0.32394889
0.89179593 0.46624774 0.3222025
0.88999331 0.4649725 0.31891146
0.89660597 0.46841902 0.33244541
0.89623886 0.46950406 0.32886407
0.89506441 0.46656385 0.33039832
0.88008964 0.42716816 0.35480946
0.88147449 0.42660567 0.36133486
0.88305157 0.43312892 0.35383475
0.8832677 0.4352172 0.35108519
0.88764638 0.43802413 0.3623524
0.8868866 0.44726136 0.33812258
0.88710654 0.45063925 0.33152261
0.88571095 0.44970194 0.32866353
0.88624334 0.45574754 0.31676471
0.88328612 0.45384932 0.31234106
0.88686681 0.45545077 0.31973016
0.88756895 0.45718044 0.32257795
0.89877176 0.48114476 0.29870197
0.89975595 0.47986171 0.30729169
0.90101272 0.48014608 0.30440715
0.89228505 0.47233689 0.31278563
0.8946988 0.47287363 0.31780457
0.88687211 0.46845511 0.3046923
0.90691054 0.46874765 0.34535158
0.90513051 0.47166476 0.33723861
0.90598869 0.47036096 0.34091711
0.89381832 0.48187256 0.29057759
0.89742184 0.42230031 0.43119559
0.90378451 0.4073025 0.46833
0.90150744 0.40789083 0.46922567
0.89743412 0.38069835 0.50655961
0.89475352 0.37397686 0.51573777
0.85375303 0.38041356 0.40470207
0.88018054 0.12899072 0.64365631
0.88246143 0.13424881 0.64242566
0.89316285 0.11579167 0.6457814
0.89026207 0.1144974 0.64706939
0.88754153 0.11432536 0.64778787
0.81676996 0.15489185 0.65964526
0.81779659 0.16273105 0.66026723
0.81175631 0.16058619 0.66138852
1.0074284 0.26584491 0.6361351
0.87458408 0.14488809 0.64170027
0.88398254 0.1368067 0.64229089
0.88880205 0.14045681 0.64094168
0.89305389 0.13634208 0.64055419
0.89795816 0.13156085 0.64026999
0.90588254 0.13697195 0.6386537
0.90936053 0.13969153 0.63867742
0.90895003 0.14247534 0.63790518
0.90844166 0.14721745 0.6367141
0.91238934 0.14966533 0.63658786
0.90916353 0.1544933 0.63557547
0.89915061 0.14498499 0.63687557
0.90260369 0.14386958 0.63638467
0.90313798 0.14861174 0.63562095
0.90635073 0.14962874 0.63579291
0.90478325 0.14163142 0.63706958
0.90303451 0.13756299 0.63812447
0.90103781 0.13729581 0.63780028
0.90003437 0.1307946 0.63983113
0.90681314 0.13498873 0.63955432
0.91240633 0.12622593 0.6432215
0.92083317 0.11777049 0.64494932
0.88662511 0.13551909 0.64199638
0.88883823 0.13582109 0.64166492
0.88935107 0.12862371 0.64325303
0.89668381 0.12861048 0.64126647
0.89997995 0.12360562 0.64194
0.90370584 0.13086922 0.64067596
0.90409625 0.12569596 0.64277989
0.90605968 0.12271775 0.64411473
0.89068675 0.13504337 0.64128816
0.90826178 0.1305204 0.64094186
0.90990245 0.12884369 0.64210516
0.90882599 0.12337688 0.64439178
0.89716959 0.13934727 0.63838184
0.72272187 0.1749566 0.59508371
0.72352755 0.17917039 0.59628248
0.71602863 0.18016046 0.59182918
0.7186709 0.17732523 0.5923481
0.70755267 0.18132594 0.58876294
0.70617419 0.19568828 0.58703411
0.70784861 0.19260065 0.58916485
0.70399785 0.19084547 0.58844721
0.70287329 0.20127727 0.57755941
0.70536488 0.20643653 0.5771572
0.70767725 0.2090451 0.57935554
0.70745766 0.20960452 0.57567817
0.70565617 0.20477204 0.58038896
0.70943034 0.20482619 0.58372229
0.71226835 0.20045646 0.58857578
0.71315873 0.20183723 0.58877593
0.71221507 0.19993594 0.59242737
0.71451068 0.20269154 0.59206086
0.72033936 0.20770296 0.59149933
0.71915066 0.20277546 0.59084773
0.71604496 0.20261776 0.58958024
0.71238512 0.20365021 0.58725291
0.71102393 0.20665288 0.58419204
0.71120238 0.21053746 0.58160824
0.71310484 0.20119102 0.59105361
0.71123266 0.195228 0.59154391
0.70352471 0.19678195 0.5841378
0.70287377 0.1940807 0.58492208
0.71024519 0.19388945 0.59033942
0.88658297 0.20427527 0.7275514
0.84013945 0.18298285 0.70689762
0.84417671 0.18775447 0.70897228
0.8713311 0.2222842 0.71933037
0.88308746 0.19721748 0.72419721
0.88139409 0.19752632 0.72197396
0.8802048 0.19397274 0.72042507
0.7935521 0.15394819 0.72421664
0.79660392 0.157414 0.72679299
0.7991429 0.15951154 0.72735149
0.79551286 0.15981629 0.72527307
0.80694252 0.15275609 0.73122752
0.84227812 0.16456847 0.71019858
0.83650571 0.16784137 0.70739073
0.8675586 0.16308594 0.70975256
0.86219817 0.15716501 0.70252728
0.86386597 0.15992032 0.70488268
0.86451852 0.1587985 0.70542067
0.8913725 0.1593826 0.71025002
0.88332856 0.14973639 0.70191431
0.92557001 0.15319026 0.7181893
0.92231375 0.14865182 0.71914077
0.90794867 0.14559337 0.72669959
0.91088969 0.14974751 0.72107828
0.90785724 0.1540962 0.72019738
0.91343939 0.15012921 0.71964073
0.90997696 0.15766506 0.71651214
0.90856802 0.14869258 0.7235257
0.90693259 0.15739433 0.7182802
0.90515876 0.16212799 0.71445477
0.90425545 0.15766472 0.72093725
0.91965944 0.14731307 0.71964562
0.91726655 0.14640753 0.72055781
0.91802293 0.1511483 0.71815401
0.91132855 0.15505482 0.71786916
0.91239935 0.14570889 0.72309375
0.92736989 0.15686373 0.7188043
0.9198041 0.16368635 0.7158125
0.92018145 0.15522189 0.7172491
0.90343291 0.1563372 0.73415422
0.92370749 0.15254831 0.71815169
0.91973698 0.15847783 0.71660995
0.91150713 0.19896458 0.74803054
0.87369347 0.18919186 0.64959258
0.92578584 0.17865443 0.72312367
0.92849475 0.17516817 0.72501248
0.92903227 0.17109928 0.72422105
0.9287796 0.17877191 0.72578931
0.9384498 0.20131828 0.72651488
0.92050022 0.16612072 0.71615446
0.91568208 0.17357022 0.71201146
0.91917133 0.1704475 0.71443361
0.92977548 0.17505017 0.72517389
0.93046212 0.17979613 0.72628415
0.92577541 0.16788958 0.72062266
0.92711341 0.16943082 0.72269058
0.92631024 0.20732263 0.71970904
0.92567015 0.20939441 0.71867782
0.92304957 0.21019863 0.7164467
0.92644805 0.2193148 0.71611381
0.96700269 0.26868775 0.77855021
0.95691776 0.26551682 0.77303571
0.95358485 0.26615483 0.77033418
0.95353973 0.27016777 0.76606369
0.95114833 0.267719 0.76615614
0.95111811 0.26908416 0.76403916
0.94687986 0.26700118 0.7620948
0.94254494 0.26816443 0.75532103
0.93727612 0.26112762 0.75768024
0.93837935 0.2591354 0.75972313
0.93584812 0.25432065 0.75859797
0.93453211 0.2559616 0.75738072
0.93104577 0.25079444 0.7555865
0.93750834 0.24923152 0.75869304
0.9311744 0.24728052 0.754776
0.92705154 0.24845371 0.75274831
0.92134356 0.25205401 0.74896723
0.91982156 0.25202289 0.75174105
0.92299223 0.25896418 0.74744874
0.92184371 0.26012909 0.74831688
0.92545253 0.26672363 0.74389285
0.92958087 0.26635349 0.74044526
0.93255466 0.26704469 0.73822862
0.93796462 0.26728249 0.73307651
0.93565267 0.26712871 0.7354598
0.93383729 0.26858014 0.73665822
0.92914253 0.26863605 0.74077499
0.92408735 0.25423199 0.75031853
0.92362237 0.2576237 0.74806285
0.92517966 0.25964868 0.74740821
0.92598027 0.26268977 0.74436992
0.92382944 0.2637189 0.74629676
0.92697614 0.26593533 0.74325609
0.9284116 0.26239324 0.74743849
0.93865991 0.26581484 0.75435138
0.92435986 0.26030216 0.7460112
0.93036598 0.25343853 0.75499684
0.92787981 0.25847697 0.75114977
0.92617089 0.2511867 0.75238597
0.9230088 0.25014699 0.74963927
0.92226404 0.2554372 0.74850011
0.94620895 0.2542446 0.76487875
0.94581705 0.2568329 0.76535112
0.95149279 0.25899106 0.76891094
0.95997792 0.26271808 0.77437067
0.95863843 0.26443493 0.77411431
0.94016457 0.26359293 0.75851977
0.9446224 0.26480192 0.76204032
0.95170152 0.26668069 0.76806831
0.94919443 0.26121891 0.76770717
0.94914186 0.26374814 0.76733184
0.94613755 0.26342079 0.76481682
0.94026214 0.25302193 0.76128328
0.94301051 0.25729147 0.7635715
0.94229418 0.26035848 0.7628113
0.94490093 0.25974986 0.7648862
0.97070712 0.27217501 0.78018963
0.9674449 0.27299574 0.7793327
0.96816248 0.27743798 0.77918053
0.96580231 0.27839717 0.77732831
0.96777201 0.28282687 0.77633917
0.97136003 0.28933141 0.7736665
0.97040099 0.28921741 0.77179897
0.97665334 0.29604855 0.7720055
0.98667389 0.30510348 0.7735908
0.97412157 0.27185732 0.78048158
0.97579795 0.27701339 0.78177589
0.98024291 0.2789402 0.78234553
0.97970933 0.29241613 0.78007597
0.98170656 0.29519162 0.77979553
0.98364085 0.29563311 0.78067935
0.98485047 0.30076352 0.77789563
0.98943585 0.29953188 0.78127778
0.99777365 0.30780166 0.78033412
0.99289453 0.30506653 0.77968377
0.98697162 0.30073011 0.77936184
0.99154705 0.30613524 0.77806711
0.98435175 0.30228776 0.77546525
0.98180318 0.30096376 0.77330643
0.98037571 0.29737955 0.77692068
0.97672606 0.29521972 0.77444482
0.97716802 0.2927984 0.77783233
0.97386718 0.29075712 0.77586031
0.97824657 0.28819212 0.78094983
0.97555387 0.28319728 0.78127283
0.97834891 0.2832258 0.78218073
0.97199553 0.27745146 0.78088063
0.98744166 0.29524487 0.78214353
0.98483711 0.28265125 0.78290302
0.931476 0.20050409 0.72423387
0.92051941 0.20516826 0.71773267
0.90899694 0.2070957 0.70760202
0.90572292 0.19975883 0.708556
0.90933412 0.19535542 0.71055585
0.90343809 0.19356385 0.70861596
0.90825415 0.19004658 0.70997131
0.92226225 0.24707964 0.74875319
0.91817898 0.23839742 0.75133556
0.91070223 0.24545364 0.74648589
0.90980917 0.23574987 0.74863046
0.90776509 0.24435623 0.74561578
0.90418553 0.18862747 0.70918441
0.90278041 0.1878566 0.70984411
0.91690266 0.19138576 0.71628708
0.88366222 0.21895015 0.73563284
0.85506892 0.2171113 0.72422397
0.84652174 0.21335857 0.72458464
0.84528053 0.20546782 0.72579771
0.84364837 0.20493549 0.72499371
0.8434971 0.20148212 0.72585416
0.84837449 0.21446818 0.72544962
0.84879655 0.20973323 0.72604138
0.8522979 0.21547252 0.72519302
0.85434258 0.21947461 0.72501397
0.85782623 0.22309817 0.72496951
0.85098785 0.21263711 0.72576678
0.86209762 0.23449841 0.72296655
0.83107531 0.28292003 0.69833475
0.83070445 0.28854802 0.68790376
0.83221495 0.28742629 0.68685025
0.83311695 0.28171921 0.69515175
0.83166635 0.28330219 0.69507211
0.83245438 0.29093981 0.6812104
0.83098567 0.29246771 0.68155086
0.85462314 0.22459257 0.72399527
0.85590774 0.22787507 0.72358811
0.87234128 0.23037845 0.71550936
0.86830074 0.22714643 0.71458459
0.87987417 0.23988257 0.72226542
0.87913412 0.24051249 0.71825361
0.89585966 0.23805514 0.7351042
0.88289744 0.24760255 0.71773946
0.89117205 0.25370887 0.71535534
0.89867914 0.2557309 0.71869594
0.90247434 0.25942397 0.71459508
0.9046616 0.2608012 0.71290654
0.90857524 0.26138711 0.71611971
0.91590732 0.26337442 0.71333522
0.91453844 0.26291278 0.71105158
0.90998697 0.26238331 0.70512605
0.90743321 0.26204106 0.70925349
0.89740795 0.25692457 0.71557748
0.89280468 0.25071323 0.71990103
0.89810336 0.25083327 0.72375214
0.90270692 0.25169882 0.73226309
0.90280342 0.25234196 0.73009038
0.90595013 0.25738481 0.73127711
0.90876079 0.26123688 0.7291007
0.90810919 0.25999564 0.72678334
0.91160554 0.26349124 0.72629309
0.91509354 0.26565993 0.72433633
0.91785097 0.26637322 0.72217441
0.91186684 0.26247188 0.71338248
0.9170239 0.26434135 0.71752125
0.90760285 0.25988767 0.7230975
0.90075743 0.25401041 0.72342545
0.89458275 0.25318971 0.71860492
0.90235943 0.25313503 0.72711927
0.90517241 0.25648189 0.72746545
0.90586072 0.25811285 0.72476101
0.91035646 0.26175028 0.72047174
0.9124915 0.2631236 0.72273427
0.91012371 0.26166198 0.72407377
0.90244424 0.25721514 0.72027838
0.90544373 0.25986257 0.71759641
0.89595926 0.2588346 0.70996487
0.89322013 0.25854579 0.70885342
0.88980126 0.25967774 0.70768702
0.88690656 0.25896049 0.70595396
0.88755822 0.25983453 0.70364523
0.89403075 0.26022354 0.704404
0.90002102 0.26072335 0.69568318
0.89215755 0.26048291 0.70257813
0.89224571 0.26051718 0.6967774
0.89136165 0.26086447 0.69434303
0.8961041 0.26031387 0.69174778
0.88823193 0.26179805 0.69125688
0.89622819 0.26057225 0.70011085
0.88733023 0.26098153 0.69892454
0.88291448 0.26358265 0.69466996
0.88090664 0.26378104 0.69555402
0.87918764 0.26329017 0.69088668
0.880557 0.26519343 0.6831851
0.87271953 0.27010128 0.68745589
0.87546051 0.26550031 0.6913591
0.87499458 0.26277044 0.69810253
0.87864554 0.26260483 0.69458377
0.88472253 0.26178032 0.69859177
0.87214184 0.25874949 0.70618689
0.87099874 0.25670886 0.70903784
0.87001556 0.26542717 0.69821936
0.88397288 0.26380175 0.69033509
0.88251597 0.2635051 0.6871261
0.8812862 0.26411238 0.68520898
0.88398081 0.26338327 0.68231475
0.88549954 0.26386577 0.68700862
0.90003926 0.25735146 0.68190986
0.90274751 0.25850838 0.6796152
0.90702295 0.26227504 0.70342958
0.90186173 0.26124814 0.7017557
0.89886928 0.2607002 0.70636052
0.9062537 0.25210524 0.73391408
0.90500128 0.2538569 0.73314309
0.90899915 0.25737515 0.73251188
0.90743273 0.24954459 0.74195969
0.90857291 0.24976271 0.74378866
0.91414255 0.25194666 0.74619102
0.90495598 0.2453894 0.74236643
0.9151836 0.24531437 0.74880308
0.91415107 0.23904073 0.74977344
0.91836613 0.24444203 0.75152874
0.91921169 0.25628215 0.75067687
0.91777396 0.26090252 0.74747229
0.91959441 0.26613596 0.74344152
0.9192661 0.26447171 0.74163568
0.91767663 0.26069602 0.74545705
0.91687083 0.25775865 0.74599797
0.91712385 0.25402743 0.74828464
0.9168402 0.25028673 0.74884212
0.91922694 0.2477251 0.75177211
0.91789067 0.25718659 0.75016886
0.917898 0.25349459 0.75132883
0.91725951 0.26120168 0.74237245
0.92096496 0.26667544 0.73943168
0.91659254 0.26205674 0.7395314
0.91191024 0.25720283 0.73996675
0.91472214 0.25788128 0.74278867
0.90998769 0.25323215 0.74188977
0.90846699 0.25200421 0.73759484
0.91283733 0.2605907 0.73433185
0.90802658 0.25934786 0.73122495
0.90982729 0.26146272 0.73006731
0.91227478 0.26149979 0.73031074
0.9148255 0.26336578 0.72830427
0.91274738 0.26404467 0.72736859
0.91517133 0.26318219 0.73240459
0.91344595 0.26011932 0.73783869
0.92025143 0.26628998 0.73726058
0.92375332 0.26983932 0.73791647
0.91619754 0.26353964 0.73581302
0.92099613 0.26779652 0.74148929
0.92083311 0.26552811 0.74439657
0.91866779 0.26108405 0.74785995
0.91097409 0.25747254 0.73634613
0.91549486 0.25577372 0.74550486
0.92336082 0.26840308 0.73614901
0.92789072 0.27108032 0.73380244
0.93275464 0.26155913 0.7530266
0.92794067 0.26475486 0.74294436
0.93131632 0.26643619 0.741373
0.93556619 0.26803759 0.73950982
0.87649888 0.23422241 0.72303283
0.87553161 0.22982328 0.7251237
0.87463766 0.23015617 0.72343111
0.87769181 0.23454753 0.72426349
0.87820524 0.2366678 0.72358215
0.9125092 0.25386205 0.74392819
0.91784626 0.24784848 0.75115436
0.89902711 0.23344636 0.74443591
0.93340504 0.25880075 0.75560957
0.92950273 0.25579411 0.75378406
0.93000394 0.26468414 0.7457059
0.9415282 0.26910967 0.75222754
0.93253207 0.26674008 0.74407953
0.93528885 0.2665056 0.74952018
0.94468683 0.27049598 0.75269973
0.95108229 0.27271345 0.75515151
0.95932162 0.27656865 0.7603308
0.95616722 0.27457282 0.75752103
0.94938707 0.27138507 0.75707835
0.95298249 0.27270365 0.7592051
0.96019852 0.27756897 0.76288855
0.96243441 0.28037584 0.76600879
0.96614945 0.2828047 0.77417719
0.96416271 0.27928874 0.77503806
0.96208912 0.27458358 0.77548325
0.95948732 0.27450287 0.77173477
0.96172643 0.27801266 0.77195746
0.96043205 0.2779181 0.76566041
1.0491513 0.3669607 0.770262
1.0518206 0.37382036 0.76778293
1.042444 0.36950588 0.77166927
1.0382875 0.37015036 0.7713514
1.0374131 0.37226111 0.76954287
1.0382655 0.37505728 0.76795077
1.0356612 0.37912047 0.76275039
1.036613 0.38204941 0.75595844
1.0277059 0.36533439 0.7578879
1.0300648 0.36413878 0.76697218
1.0296725 0.36262447 0.76683307
1.0247092 0.34945419 0.76921797
1.0236194 0.35223272 0.76928097
1.0192819 0.35223094 0.77472907
1.0044442 0.33492944 0.77222013
1.0028431 0.34035558 0.77143484
1.0078785 0.3429513 0.77002162
1.0101608 0.34110779 0.77010387
1.012013 0.34119654 0.76954389
1.014037 0.34458297 0.77099907
1.011292 0.34558216 0.77003688
1.0091262 0.34798077 0.76728725
1.0083766 0.34729251 0.76466435
1.0211846 0.36019561 0.76125616
1.0206785 0.35943803 0.76394224
1.0228554 0.36059716 0.76483506
1.0293467 0.35921744 0.76823473
1.0295383 0.35602891 0.76861709
1.0138683 0.35700601 0.77041078
1.0132818 0.35536385 0.77180058
1.0092711 0.3513554 0.76750982
1.0177888 0.35177454 0.77547324
1.014889 0.35186425 0.77312183
1.0126259 0.35140178 0.77340865
1.0107486 0.34827417 0.76966435
1.0158753 0.35441604 0.77376544
1.0124795 0.3573676 0.76295274
1.0113276 0.35811406 0.76549911
1.0114493 0.35447526 0.76902819
1.0094088 0.35390401 0.76912153
1.0080979 0.34529105 0.76371914
1.0177698 0.35672373 0.75963503
1.0196908 0.3565214 0.76670814
1.0265769 0.35927412 0.76745278
1.0220653 0.35433194 0.76886499
1.0249915 0.35362855 0.76881307
1.021222 0.33441862 0.76823479
1.0217544 0.33810276 0.76833719
1.0262928 0.34000087 0.76881152
1.0247262 0.33952066 0.76878083
1.0338099 0.34849551 0.77216059
1.0339117 0.35220355 0.77260631
1.0367852 0.35630286 0.77423424
1.0372014 0.34959075 0.7743336
1.0396773 0.3550474 0.77453214
1.0453584 0.35733575 0.7730056
1.0192212 0.33795726 0.76594675
1.0230916 0.33628479 0.76988715
1.0189401 0.33176962 0.77277547
1.0180283 0.32811388 0.7761367
1.0155568 0.32814437 0.77404076
1.0121397 0.32248458 0.77689654
1.0126239 0.32488883 0.77480417
1.0094249 0.32275334 0.77393478
1.0050198 0.31953743 0.7735315
1.0120754 0.32513735 0.77277094
1.0256413 0.3379969 0.77196276
1.0171084 0.33016795 0.77039242
1.0122764 0.3248854 0.7685957
1.0340989 0.38078907 0.75657809
1.0289165 0.37362415 0.75902832
1.0282114 0.37207708 0.76032603
1.0300316 0.37025529 0.76542491
1.031786 0.37166572 0.76679623
1.0307893 0.37399802 0.76211196
1.0338458 0.37506402 0.7624675
1.036355 0.37388006 0.7669152
1.0344404 0.37040544 0.77051038
1.0283613 0.36712995 0.76023877
1.032217 0.37546402 0.75714564
1.0327932 0.37533396 0.75977743
1.03405 0.37946364 0.7609598
1.0329173 0.37923479 0.75912565
1.0316188 0.37480572 0.75833172
1.0401663 0.37303606 0.77032775
1.0441886 0.37369043 0.7696591
1.047302 0.37814298 0.76833951
1.050609 0.37745574 0.76683027
1.053207 0.3799786 0.76422495
1.055223 0.37936777 0.76481128
1.0561507 0.38503739 0.7622596
1.0547959 0.38938776 0.76098305
1.0594887 0.39229965 0.75576204
1.0598593 0.39653638 0.75573355
1.0610708 0.39849123 0.75341344
1.0583308 0.39919189 0.74948418
1.0564768 0.39739507 0.75210768
1.0562917 0.39828521 0.74814159
1.0631663 0.39729583 0.75521386
1.0653423 0.39476851 0.75645661
1.0631541 0.39231169 0.75832295
1.0575308 0.39204159 0.75519449
1.057386 0.38684583 0.76028138
1.0584363 0.38975042 0.75678176
1.0614861 0.38930687 0.75625974
1.0556099 0.37806952 0.76509047
1.0528146 0.37675539 0.76635766
1.0493473 0.37568274 0.76856977
1.0595366 0.38709322 0.75645441
1.0389127 0.38546205 0.75380361
1.0412773 0.38343421 0.76205337
1.0402877 0.3795341 0.76311153
1.0384257 0.3820802 0.75941801
1.034866 0.38152868 0.75899959
1.038322 0.38529217 0.75797051
1.0372674 0.37997022 0.76243502
1.0428752 0.37584573 0.76771587
1.0402223 0.37561783 0.76802486
1.051284 0.38929027 0.73869067
1.0610889 0.40542862 0.7397086
1.0671488 0.41556293 0.72894615
1.0687457 0.41948235 0.73353374
1.0719601 0.42624384 0.74139231
1.0729095 0.42633313 0.74207866
1.0754201 0.42656621 0.73742509
1.07616 0.42735648 0.73906821
1.0803167 0.4320136 0.73405027
1.0816083 0.43185312 0.73574442
1.0863438 0.43403223 0.73161817
1.0984666 0.43398169 0.72592294
1.1100142 0.43466225 0.7299301
1.1102426 0.43586284 0.7261892
1.1113491 0.43556452 0.7270093
1.0801573 0.42330891 0.72251099
1.0790228 0.43070012 0.73317438
1.0800517 0.42544648 0.74219459
1.0838295 0.42617816 0.7458005
1.0853714 0.42860189 0.74369311
1.0871806 0.43041354 0.74599922
1.0919749 0.42839745 0.74665034
1.0944207 0.42693484 0.74650979
1.0971751 0.42213413 0.75005513
1.1007915 0.42358428 0.74691039
1.0967573 0.42401913 0.74780214
1.0933092 0.43028361 0.74282271
1.092953 0.43352702 0.7407614
1.0964812 0.43447062 0.7373119
1.1005511 0.43519565 0.73397851
1.0971184 0.43346468 0.72958541
1.1035489 0.43436649 0.72855914
1.1021649 0.43426865 0.72575003
1.1078517 0.43500173 0.72455412
1.1077226 0.43532583 0.72903931
1.1053791 0.4314858 0.73599559
1.0962974 0.43053165 0.74085468
1.0957326 0.42890394 0.7434563
1.1008593 0.43476471 0.73530185
1.0975049 0.43216288 0.73809552
1.1042295 0.43574706 0.73219073
1.0902185 0.43433335 0.72997302
1.0884796 0.43298215 0.73452491
1.0945687 0.43341556 0.73009866
1.0935602 0.43443218 0.72675717
1.0965526 0.43360716 0.73351032
1.0905334 0.4333744 0.73329681
1.0904328 0.4332166 0.74170887
1.0883456 0.43185046 0.74343425
1.0920565 0.43336406 0.73651886
1.0939331 0.43472615 0.73764139
1.0907626 0.43142778 0.74530363
1.0885444 0.43028393 0.74770266
1.0821186 0.42422441 0.74827653
1.0815518 0.4251906 0.74595547
1.0785317 0.42480263 0.74369359
1.0861366 0.4281697 0.74818254
1.0926201 0.42446163 0.74837244
1.087332 0.42685103 0.75003445
1.0965575 0.42087072 0.75265127
1.1028395 0.41926253 0.74957061
1.1103808 0.43051741 0.73297763
1.1062447 0.42974907 0.73741007
1.1041712 0.42953339 0.73924643
1.0989223 0.43019143 0.74025613
1.097477 0.42766985 0.74518359
1.108238 0.43093383 0.7346065
1.107689 0.42765617 0.74004757
1.1052674 0.42850146 0.74088341
1.1099511 0.42898747 0.7353822
1.107213 0.42464331 0.742356
1.1044432 0.42063835 0.74675781
1.1044468 0.42223939 0.74577886
1.1047183 0.42566791 0.74446768
1.0781051 0.42789492 0.73871708
1.0698321 0.4249748 0.74456263
1.0723565 0.42528129 0.74597472
1.0766829 0.42451313 0.74677348
1.0783845 0.42255554 0.74959856
1.0785447 0.42119688 0.75262135
1.0780423 0.41948956 0.75520283
1.0725541 0.42300895 0.74801213
1.0595419 0.40599242 0.74990469
1.0616375 0.40429568 0.75521541
1.0604366 0.40294772 0.75553411
1.0684046 0.39698553 0.75955892
1.0721548 0.39509836 0.75902444
1.0720261 0.3928251 0.75871456
1.0845441 0.3905375 0.75773996
1.0828931 0.39427257 0.75785565
1.0805123 0.39340597 0.75673789
1.0724611 0.40358111 0.76022738
1.0717692 0.40582883 0.75742972
1.0736493 0.41244712 0.75822455
1.0769295 0.41746575 0.75771433
1.0720279 0.41854724 0.75661051
1.0655359 0.41500443 0.74985451
1.0644041 0.4198752 0.73896867
1.0638011 0.41968513 0.74182004
1.0625201 0.4174915 0.742284
1.0617365 0.41353643 0.7428633
1.0615677 0.406535 0.75140017
1.0625269 0.40881443 0.75443262
1.0662656 0.40662828 0.75615185
1.0685128 0.40516016 0.7570107
1.0671914 0.4003216 0.75873369
1.0671508 0.40296766 0.75655478
1.0745894 0.41873825 0.75760114
1.0720652 0.41546354 0.7586385
1.0706025 0.40855548 0.75637001
1.0691483 0.41555989 0.75797403
1.0697885 0.41769296 0.75360352
1.0669802 0.41459724 0.75687248
1.0644687 0.41334796 0.75228286
1.0622022 0.41068262 0.75140119
1.0628301 0.41197911 0.75279963
1.064244 0.41118389 0.7558189
1.0625809 0.41238701 0.74787003
1.0633543 0.41591653 0.74639368
1.0677445 0.41315371 0.75773787
1.082615 0.42233858 0.75345778
1.0845734 0.42431003 0.75121498
1.0893574 0.4293189 0.74820071
1.0907142 0.42270166 0.75094473
1.0922475 0.42097983 0.75359845
1.0878042 0.41924438 0.75379634
1.0910778 0.41649416 0.75319493
1.094759 0.41895479 0.75326777
1.0945556 0.41421014 0.75207978
1.0880181 0.4013629 0.76153708
1.0835994 0.40655914 0.75998276
1.08641 0.40964976 0.75629646
1.0849727 0.41358232 0.75395095
1.0821105 0.41499066 0.75415379
1.0848527 0.41884193 0.75390148
1.08804 0.42373803 0.75052923
1.0853496 0.42131227 0.75368899
1.0883961 0.42139557 0.75311792
1.0841115 0.40861794 0.75796509
1.0785202 0.41355166 0.75778168
1.0795962 0.41862032 0.75525945
1.0779767 0.40634859 0.76017553
1.0810844 0.40102279 0.76329648
1.084163 0.40139437 0.76311058
1.0789967 0.40855697 0.75901407
1.0886567 0.40403962 0.76077783
1.0920626 0.40977246 0.75501752
1.0923876 0.41312763 0.75353938
1.0853021 0.41651681 0.75331926
1.0873134 0.40652183 0.75690353
1.0921942 0.40428421 0.75733793
1.0927649 0.40681782 0.7554515
1.0914131 0.40645704 0.75626153
1.0856518 0.39581573 0.75766271
1.0774293 0.39325884 0.75402099
1.0756723 0.39445734 0.75446707
1.0704437 0.4002232 0.75748229
1.0698279 0.40301293 0.75906843
1.0712646 0.39796326 0.7584157
1.0633935 0.39959142 0.75807732
1.0572973 0.4044778 0.74963719
1.0575556 0.40294316 0.75157183
1.0581384 0.4003661 0.74910903
1.0568396 0.39894465 0.74439996
1.0550396 0.39794225 0.74552399
1.0509009 0.3885555 0.74383563
1.054891 0.39671373 0.74799079
1.0567464 0.39410034 0.75233477
1.0555092 0.39383367 0.75409895
1.0489129 0.3941741 0.75186402
1.0486003 0.39211422 0.75616568
1.0516576 0.38962656 0.76004368
1.0524907 0.38646927 0.76138264
1.0487442 0.38420549 0.75870955
1.0427842 0.38688353 0.7549023
1.0404551 0.38696536 0.75760257
1.0464507 0.3848089 0.75769728
1.0480936 0.38220796 0.76112252
1.0441849 0.38616455 0.75909299
1.0426682 0.38583383 0.76027215
1.0466324 0.38173398 0.76467961
1.0503404 0.38122979 0.76167196
1.0539995 0.38421854 0.76274842
1.0461119 0.39043376 0.75251627
1.0457554 0.39073259 0.74975312
1.0457602 0.38601544 0.75469166
1.0484891 0.38683769 0.75691879
1.0462652 0.38696676 0.75371015
1.0441273 0.38479838 0.75150084
1.0445633 0.38505483 0.7504009
1.0429095 0.38367295 0.7489481
1.066184 0.39628595 0.75853908
1.0697649 0.39400902 0.75912982
1.0680428 0.39244568 0.756643
1.0672625 0.39112693 0.75664663
1.047002 0.37091458 0.77039838
1.038764 0.36406082 0.77330118
1.0361907 0.36257365 0.7734468
1.0340521 0.36525068 0.77237397
1.0310876 0.3594121 0.76993936
1.034911 0.35668743 0.77354228
1.0390493 0.35998583 0.77414489
1.0311013 0.34948426 0.76879752
1.0292197 0.35128662 0.76797873
1.0288249 0.34607095 0.76531255
1.0271533 0.34510821 0.76574349
1.0263056 0.34256655 0.76832598
1.0292882 0.34363484 0.76707345
1.0306417 0.35574126 0.76972872
1.0421766 0.36173066 0.7736932
1.0446641 0.3649146 0.77248722
1.0454938 0.36201102 0.77277869
1.0109847 0.31027621 0.78109652
1.015417 0.3122761 0.77985632
0.99918091 0.29548103 0.78287935
0.94919455 0.24075194 0.72417802
0.9434672 0.23850909 0.72394902
0.93984926 0.23557898 0.7218802
0.94287729 0.23603772 0.72334248
0.94711226 0.2433157 0.7242502
0.94114035 0.23462176 0.72237062
0.93626148 0.22140573 0.72217023
0.94092238 0.2207925 0.72468674
0.94419611 0.22330515 0.72532028
0.944175 0.21503404 0.72590578
0.9467665 0.21949762 0.72548401
0.94979739 0.22787736 0.724473
0.93799084 0.26673925 0.73479557
0.94893736 0.23184204 0.7244736
0.94624645 0.23188494 0.72423351
0.98949575 0.28597647 0.78305769
0.98234844 0.28380552 0.78283548
0.98515964 0.29042715 0.78271908
0.99285352 0.29957938 0.78224003
1.0018271 0.30600736 0.78195572
0.99881667 0.29942936 0.78297728
1.0045695 0.30305466 0.78232878
1.0075482 0.31023309 0.78139985
1.0056762 0.31489807 0.77914894
1.0046953 0.31633201 0.77762371
1.0108675 0.3144235 0.78049546
1.0134966 0.31801221 0.77972776
1.0145133 0.32265487 0.77803254
1.0209162 0.32998174 0.77625662
1.0315816 0.33368504 0.77615011
1.0296779 0.33357763 0.77650839
1.0358818 0.34339717 0.77510101
1.0387889 0.34741634 0.77473193
1.0337789 0.34282318 0.77454358
1.0288435 0.34045216 0.77268773
1.0284344 0.34159833 0.76950371
1.0308166 0.33667731 0.77586704
1.0289307 0.33767879 0.77471775
1.0189068 0.33093327 0.7741636
1.0343548 0.34683436 0.77318227
1.0311085 0.34630269 0.76894057
1.0309942 0.34382474 0.77073544
1.0372118 0.34230676 0.77506512
1.0080988 0.31417593 0.78022575
1.020268 0.32292721 0.77867293
1.0204599 0.32513443 0.77814925
1.0249395 0.33165261 0.77656835
1.0205351 0.3212283 0.77878582
0.99983519 0.3076587 0.78106999
0.99919742 0.31167266 0.77840376
0.99819779 0.3138316 0.77466094
1.0067931 0.32090729 0.77069283
1.005551 0.3189401 0.77558225
1.0085704 0.30448142 0.78144491
1.0038036 0.29852349 0.78212517
0.99376875 0.2932086 0.78343272
0.99193156 0.29572752 0.78308386
0.98901516 0.28945449 0.78338695
0.94384789 0.27055764 0.75029516
0.98960489 0.30780292 0.77073479
0.98415256 0.30326873 0.76881105
0.97939438 0.29902774 0.76998436
0.96605098 0.28443348 0.77045363
0.96916509 0.28804624 0.76932192
0.97560686 0.29508719 0.77041984
0.9826923 0.30221057 0.77090454
0.95662206 0.27448657 0.76261365
0.95769233 0.27385867 0.76788664
0.95618266 0.27025789 0.7708804
0.95805472 0.26890382 0.77353525
0.96341109 0.27285323 0.77708149
0.95052123 0.27017763 0.76133859
0.96434718 0.27068257 0.77779174
1.02191 0.33594033 0.76896197
1.0205834 0.31932616 0.77872366
1.0418934 0.35493755 0.77426279
1.0204952 0.34927112 0.77546358
1.0208993 0.35175857 0.77220863
1.0182151 0.3482939 0.7741943
1.0149525 0.34896249 0.77463239
1.0126452 0.34823292 0.77155298
1.0167868 0.35659146 0.76791686
1.0189323 0.35305929 0.7726602
1.0153742 0.35577062 0.77205795
1.0326966 0.36032641 0.7718637
1.019413 0.3552618 0.76915306
1.0079175 0.35392991 0.76601887
1.010314 0.35717678 0.76124007
1.0092933 0.35445014 0.76312298
1.0094937 0.35682842 0.76388699
1.0107008 0.35730863 0.76755118
1.0201037 0.33341879 0.77140743
1.0258864 0.33658075 0.77388549
1.0261112 0.36469227 0.75999546
1.0280718 0.36546168 0.76140922
1.0441197 0.38102329 0.76536185
1.0323542 0.3679668 0.77026063
1.0348321 0.36805514 0.77214468
0.99802244 0.31402984 0.76964623
0.99733597 0.31370375 0.77171212
0.99190086 0.30883387 0.77441323
0.99305236 0.30865818 0.77661967
1.0013925 0.34103826 0.76872277
0.99971384 0.33634371 0.76949733
1.0020572 0.33704692 0.77213007
0.99970293 0.33845064 0.76914734
1.0038056 0.34241927 0.77301538
1.0036938 0.34412965 0.77040684
1.0024405 0.34434041 0.767968
1.007479 0.34411591 0.76857609
1.0070493 0.34487107 0.76699716
1.0061102 0.34431869 0.76574701
1.0013987 0.34372216 0.76927155
1.0021825 0.34251344 0.77109808
1.0059448 0.33729106 0.77292782
1.0087212 0.33969462 0.77280372
1.0069082 0.33929896 0.77442729
1.0064192 0.34167737 0.77372402
1.0537385 0.39005059 0.74300665
1.0548308 0.39277217 0.74452728
1.0549124 0.39086488 0.74062693
1.060202 0.4049446 0.7407912
1.0610126 0.40521455 0.74498707
1.0587698 0.40629184 0.74570799
1.0558728 0.40458104 0.74668288
1.0563244 0.40281439 0.74872607
1.0565342 0.40513012 0.74357921
1.0538588 0.39135301 0.74683923
1.0408394 0.38613826 0.7595368
1.0466439 0.37510523 0.76947087
1.0183077 0.35748893 0.76387149
1.0153387 0.35698971 0.76336324
1.0277929 0.32767045 0.77691138
1.0168383 0.34702614 0.77480906
1.0284336 0.36350566 0.7650218
1.0520352 0.38191426 0.76235145
1.0523946 0.39268789 0.75905979
1.0523942 0.39531574 0.75527292
1.054978 0.39291546 0.7587508
1.054666 0.39414793 0.75675386
1.0543791 0.39345214 0.75162083
1.05007 0.39421281 0.75586325
1.0475625 0.39291859 0.753263
1.055555 0.39325798 0.75004882
1.068331 0.41885874 0.7496109
1.0677303 0.42193767 0.74716771
1.0716137 0.41931599 0.75212771
1.0649565 0.41928035 0.74488056
1.0681374 0.42280751 0.7417345
1.0733261 0.42067882 0.75066936
1.0741365 0.41978472 0.75267512
1.0886567 0.43206167 0.73910916
1.0826446 0.42760414 0.74099672
1.0924827 0.39161724 0.75559372
1.0921512 0.39506012 0.75497437
1.0907124 0.39725855 0.75552565
1.0768203 0.39180434 0.7542749
1.0619065 0.40637413 0.74743146
1.0745065 0.42238784 0.73396444
1.0706531 0.42040139 0.73073661
1.0768498 0.42801398 0.73624426
1.0842808 0.43352234 0.7301237
1.089203 0.43440428 0.72774404
1.0776975 0.42542267 0.73185807
1.0753216 0.42137751 0.72694701
1.0838667 0.42492181 0.72390145
1.0767745 0.42258874 0.72415859
1.0803505 0.42345554 0.72583002
1.0675437 0.41646498 0.72657692
1.0717369 0.41962066 0.7266503
1.070451 0.41917622 0.72455567
1.0684031 0.41712549 0.72541839
1.0585603 0.39553988 0.75553191
1.0616413 0.39355496 0.75807226
0.93877834 0.26898763 0.74469846
0.94446206 0.27076077 0.74814391
0.94965446 0.27251592 0.7506004
0.94005662 0.26902348 0.74216509
0.97310627 0.28594303 0.77899814
1.0638051 0.40269318 0.75752252
1.0651351 0.40420634 0.75451428
1.0896066 0.39156115 0.75690418
1.0992068 0.41821891 0.75185078
1.0862207 0.39275852 0.75780702
1.074146 0.40140286 0.7615369
1.0769721 0.40145341 0.7629205
1.0868571 0.43132469 0.73798686
1.0844672 0.43151292 0.73649323
1.1024476 0.42673838 0.74544269
1.1028618 0.42853999 0.74341959
1.1079764 0.43473908 0.73306364
1.0799398 0.41121209 0.75818121
1.076936 0.4105151 0.75858897
1.0748341 0.40846494 0.75773185
1.077744 0.40375605 0.76311105
1.0633516 0.40528142 0.7540561
1.0815665 0.40699956 0.75987291
1.0833774 0.40462524 0.7629596
1.0803766 0.40442407 0.76314902
1.0740098 0.42259985 0.73092991
1.0740821 0.42147055 0.72489065
0.95061034 0.23509586 0.72401315
0.93086749 0.21315487 0.72070515
0.93235451 0.21112542 0.72144985
0.93516868 0.20847628 0.72406417
0.93448633 0.20305045 0.7254895
0.93729925 0.2139159 0.72388852
0.92959726 0.20641312 0.72067755
0.93951666 0.21285579 0.72504073
0.94094598 0.2065064 0.72584808
0.94245571 0.21071044 0.72603548
0.93849301 0.20693378 0.7257033
0.93777454 0.20366934 0.7264722
0.92917204 0.21527536 0.71923441
0.93398625 0.23118964 0.71889234
0.93342537 0.23240945 0.71875304
0.9369781 0.23415487 0.72042763
0.95112026 0.23889345 0.72351789
0.83355707 0.18485041 0.72791779
0.83642763 0.18791072 0.72699696
0.83411437 0.18724142 0.72692519
0.8356142 0.1885599 0.72693419
0.8191992 0.17889042 0.73395574
0.80875868 0.17620397 0.73673093
0.80035114 0.17693207 0.73686105
0.80759585 0.17948137 0.73574227
0.79768658 0.17929392 0.73756886
0.81589985 0.17685649 0.73518634
0.79580963 0.19783595 0.74591732
0.79450309 0.2007547 0.74527788
0.78305793 0.20051616 0.74503446
0.77844715 0.20581734 0.74589628
0.78456074 0.2047123 0.74394953
0.78112596 0.20583704 0.74425817
0.85964268 0.19855987 0.72499835
0.86134791 0.20452034 0.72495621
0.91254252 0.17010531 0.73939812
0.91293526 0.19860865 0.7478916
0.89993006 0.23740098 0.73450965
0.89747059 0.23123713 0.73397678
0.82790345 0.26446214 0.72207922
0.82609266 0.26447156 0.71919817
0.93879402 0.30644429 0.65253854
0.93894857 0.30518252 0.65306962
0.93505424 0.30448681 0.65260595
0.94078046 0.30269396 0.65194148
0.94411814 0.30570638 0.65076345
0.94345129 0.29873791 0.6517964
0.94359881 0.29315048 0.6509307
0.94237041 0.28874198 0.65128398
0.93750089 0.28534174 0.65108848
0.94412589 0.30184814 0.65140241
0.93847317 0.29553238 0.65350562
0.93935961 0.29081258 0.65130103
0.9379425 0.29398161 0.65381145
0.93459624 0.29619947 0.65266991
0.93654484 0.30032018 0.65235257
0.94049758 0.29996872 0.65219504
0.93441105 0.28367451 0.65117705
0.93899387 0.32363093 0.65977353
0.93510193 0.32106274 0.65846318
0.93694484 0.31690493 0.65824008
0.88335508 0.33813414 0.64861304
0.88080204 0.33111334 0.63971728
0.83702338 0.20177419 0.7206021
0.8332721 0.1985735 0.72050977
0.83230811 0.19436687 0.72071999
0.82992029 0.19163497 0.72087616
0.80645961 0.17497762 0.73730749
0.84555942 0.26139727 0.71808583
0.79224032 0.19318074 0.73680347
0.78097528 0.20090744 0.74580199
0.78131312 0.20278335 0.74576485
0.79444253 0.15910597 0.72507536
0.79373896 0.15724449 0.72576439
0.80535638 0.1542456 0.73098749
0.80136383 0.15209974 0.72887927
0.83686543 0.19883159 0.72118461
0.90784222 0.25925946 0.67837048
0.89497674 0.25793213 0.67331898
0.8930285 0.25834185 0.6681875
0.8923912 0.26080292 0.66442484
0.89194673 0.26198953 0.66240883
0.89623559 0.2626968 0.66546929
0.9113977 0.2587246 0.65312302
0.91081518 0.25515056 0.65627933
0.86877263 0.26999095 0.69242007
0.87213582 0.26568717 0.69571561
0.85903341 0.28450584 0.67839688
0.85580784 0.28745836 0.67476285
0.86177206 0.28684622 0.67663103
0.86145109 0.30498832 0.66616774
0.88480848 0.32550731 0.67705441
0.88280779 0.32603967 0.67348814
0.8888877 0.26196912 0.66103226
0.89402771 0.26322713 0.66050708
0.8937993 0.2659983 0.65871894
0.8901391 0.26365325 0.65896863
0.8961854 0.27316195 0.64951533
0.89398682 0.27127311 0.65083754
0.89483583 0.27001977 0.65131253
0.90041584 0.27216533 0.65230286
0.89882088 0.28056961 0.65025222
0.90613347 0.28009579 0.64524746
0.91868931 0.28660426 0.64538121
0.91989833 0.28583789 0.64694434
0.91123402 0.27660164 0.64513767
0.89662623 0.2790314 0.65067923
0.90340698 0.27756861 0.65279323
0.90513361 0.27755055 0.64854324
0.90884334 0.27552333 0.64684612
0.90626431 0.27653784 0.6534282
0.90428144 0.27503309 0.65366471
0.90587038 0.27571017 0.65409511
0.90262443 0.26629555 0.65770912
0.89902747 0.27007005 0.65841168
0.90627825 0.27176487 0.65441638
0.90874255 0.27020276 0.65450633
0.89472419 0.26222143 0.66236758
0.90139413 0.26550415 0.66969895
0.89997494 0.26378816 0.67035544
0.90335667 0.26361844 0.67255187
0.9038589 0.260795 0.67647177
0.90107799 0.25908616 0.67723006
0.90035081 0.25588563 0.67496508
0.90183932 0.25944608 0.67418003
0.90092611 0.25775698 0.67185605
0.89046812 0.25930831 0.66724539
0.91254181 0.28076026 0.64400291
0.92341381 0.27286994 0.6514703
0.89533478 0.32210797 0.68503106
0.89599615 0.3354179 0.67292726
0.89745116 0.32637554 0.68336558
0.90715563 0.33736885 0.67681682
0.9037708 0.33777198 0.67409939
0.92932522 0.33287078 0.65717047
0.93221921 0.33930272 0.65708452
0.93213958 0.34294611 0.65788835
0.9292776 0.34257802 0.66009343
0.93464994 0.32911646 0.6602065
0.93747234 0.32547107 0.65911829
0.922454 0.29007834 0.65170342
0.9268561 0.28876546 0.65437049
0.93063903 0.29786947 0.65229547
0.92786258 0.29417083 0.65136862
0.93023998 0.29373208 0.65268487
0.93289602 0.2886993 0.65589249
0.9211517 0.28647366 0.65282953
0.91966474 0.28711423 0.65177864
0.9305594 0.27973416 0.6496821
0.92986178 0.27598742 0.64932114
0.92432839 0.28261945 0.64786273
0.92101878 0.28322074 0.64557248
0.91723043 0.28533009 0.64372808
0.91814035 0.28958708 0.64848238
0.95902205 0.33450085 0.64050609
0.95640194 0.32866248 0.64366913
0.94649237 0.30684173 0.64978456
0.95573384 0.33229759 0.6412828
0.95399237 0.33777162 0.64083469
0.95708019 0.33643141 0.63945943
0.9574163 0.33945811 0.63791442
0.95895594 0.33683926 0.63894433
0.9523859 0.34146535 0.63987285
0.95283568 0.34460527 0.63765222
0.95609748 0.35818937 0.62939733
0.95349097 0.35447243 0.63480318
0.95419693 0.35154971 0.63715172
0.95136338 0.35713708 0.63315868
0.95033449 0.35429689 0.63548976
0.94565326 0.35402513 0.6351757
0.95673394 0.35400167 0.63296288
0.91550195 0.34717456 0.65195858
0.91736716 0.34573641 0.65131092
0.89692146 0.3487286 0.64313799
0.90102786 0.35003212 0.63894993
0.89323574 0.34647068 0.64784831
0.89022219 0.34399912 0.64256835
0.88568997 0.34041235 0.6464898
0.8900857 0.34419733 0.64566696
0.94597298 0.34482685 0.64785606
0.93796986 0.34790465 0.65112001
0.9336791 0.35074893 0.650343
0.93459082 0.35307711 0.64651936
0.9402073 0.35061753 0.64587802
0.93143159 0.34612 0.65650463
0.94095463 0.34535775 0.65164936
0.94011188 0.34179872 0.65472919
0.93727839 0.34237459 0.65640056
0.93312901 0.3448374 0.65660006
0.9243384 0.34710038 0.65959531
0.92950219 0.34834194 0.65520346
0.92900264 0.34539211 0.6588546
0.92715788 0.34742445 0.65729129
0.94436842 0.34131896 0.65216595
0.93738145 0.33091617 0.65810955
0.92552787 0.34457543 0.66390556
0.92155135 0.3450101 0.6685192
0.93889046 0.36049214 0.63225758
0.93582487 0.36466199 0.6294567
0.93684548 0.36504412 0.62805498
0.93370712 0.36568537 0.62699366
0.93252438 0.36506453 0.62780648
0.90961295 0.35828027 0.62343013
0.91445941 0.35986111 0.6232239
0.920968 0.36070824 0.62692279
0.92122966 0.36087525 0.62268615
0.92532313 0.36345345 0.62383956
0.91735858 0.36031553 0.62518471
0.9238922 0.36243013 0.62631941
0.90821308 0.35764024 0.62232333
0.9186219 0.35976881 0.62799382
0.91006541 0.35457796 0.63051939
0.92372841 0.36059377 0.62921709
0.92556751 0.3583051 0.61371475
0.94222915 0.23293667 0.64387345
0.94992727 0.2345814 0.64624786
0.9562875 0.23769309 0.6486159
0.95457107 0.23978887 0.64845222
0.95903462 0.24446064 0.65045428
0.9639352 0.24438436 0.65140903
0.96617818 0.24731402 0.65126103
0.9693079 0.25063914 0.64991683
0.9732151 0.25259131 0.64979631
0.97206938 0.25396368 0.6483137
0.97883856 0.25499412 0.65030575
0.98398048 0.25832933 0.6477015
0.98621225 0.25678039 0.65112519
0.98457986 0.25548011 0.6522063
0.98648977 0.25316644 0.65054315
1.0087363 0.24696957 0.65230137
1.0114031 0.2445555 0.65216547
0.99570382 0.2262639 0.64059269
0.99520129 0.22219132 0.63999039
0.99782145 0.21885107 0.64003837
0.99505734 0.21394148 0.63870007
0.99558794 0.19797195 0.63338441
1.0017296 0.19269195 0.63455606
1.0107782 0.1844309 0.63669598
1.0136981 0.17972192 0.63711119
1.012833 0.17787407 0.63720155
1.011899 0.17648673 0.63661975
1.0168891 0.18010785 0.63894761
1.0133169 0.18490338 0.63759112
1.0195225 0.18821347 0.63827276
1.023035 0.19135717 0.6383155
1.0179156 0.19345729 0.63714182
1.0215704 0.1954255 0.63712806
1.0284745 0.19942273 0.63647264
1.0289304 0.20198563 0.6364584
1.0310198 0.20685497 0.63442045
1.038121 0.20658116 0.63490808
1.0322419 0.20346734 0.63636279
1.0330244 0.20832917 0.63433045
1.0359536 0.2049242 0.63529229
1.0421094 0.20885381 0.6359483
1.044266 0.20417184 0.63586301
1.0196637 0.19773905 0.63660187
1.0240393 0.20083323 0.63568419
1.0227486 0.20318437 0.63551307
1.0150886 0.19783406 0.63613302
1.0180423 0.20171525 0.63572776
1.0107244 0.20026776 0.63558668
1.0146278 0.20667885 0.63517451
1.0080146 0.20891914 0.63429201
1.0073872 0.21089551 0.63401175
1.0094105 0.21561401 0.6337173
1.0026928 0.21763925 0.63984567
0.99905294 0.22460087 0.63984364
1.0029542 0.22445579 0.63920462
1.0028187 0.22128934 0.63896173
1.0111647 0.21946199 0.63695085
1.0140243 0.22195038 0.63710421
1.0222391 0.21947199 0.63722527
1.015083 0.21608865 0.63401473
1.0176111 0.20402384 0.63510633
1.0171673 0.21055444 0.63458347
1.0167221 0.20823839 0.63510525
1.0115552 0.21253623 0.63408488
1.0108062 0.18904808 0.63655615
1.0113665 0.19560741 0.63605917
0.97038138 0.24496932 0.65177375
0.96157837 0.24203371 0.65083498
0.98411053 0.24937332 0.65083045
0.9888618 0.24881431 0.6504364
0.98568732 0.25004989 0.65054077
0.99995756 0.24569178 0.65052378
0.99552059 0.24916846 0.65119189
0.99606037 0.25142235 0.65155256
0.99706 0.25371382 0.65167475
1.0046781 0.25866416 0.65219367
0.99603158 0.25909445 0.64988518
1.0089362 0.2591576 0.65218347
1.0104665 0.25668857 0.65358126
1.0123802 0.25728896 0.6526044
1.0140249 0.25512829 0.65497029
1.0165752 0.25416195 0.65545136
1.0165889 0.247658 0.65481472
1.0066521 0.25602478 0.65331006
1.0035067 0.24955562 0.65209991
1.0040209 0.24708006 0.65177506
1.0038209 0.25220114 0.65265977
0.98661971 0.25596845 0.65187359
0.96295989 0.2490481 0.65002316
